ply
format ascii 1.0
element vertex 425
property double x
property double y
property double z
property double nx
property double ny
property double nz
end_header
-8.904403343776160 -6.523137121320762 -0.907269872098903 -0.701923743222714 -0.711084008718016 -0.040774884987335
-8.900724303419302 -5.617648813958180 2.643034999855748 -0.672498038104286 -0.646243065328321 0.360716355688154
-8.897225205563238 -4.811094456019134 -4.191694322876028 -0.507226241237401 -0.568054241363030 -0.648101781412187
-8.893341131882657 6.476427916969712 -5.637885103130252 -0.559543166589534 0.286906068047193 -0.777557941789971
-8.893202768428218 0.102865199386386 -6.298177158981699 -0.516122592449906 -0.217152465313098 -0.828530190380068
-8.888236853420505 9.575981962611564 -2.931558576382192 -0.579282176898949 0.718854782228680 -0.384291506013562
-8.886503231909701 -4.426169925115452 4.039729379631709 -0.693889001322219 -0.455863101048016 0.557410878030685
-8.886317724811374 6.513707097888553 -5.660055237818529 -0.589822509909240 0.299657464952713 -0.749876530171786
-8.886293760654201 -6.121938113512368 -2.830791287454479 -0.632293851567151 -0.671225829002319 -0.386859627966691
-8.882307372301604 -6.093431888522723 -2.821627260739702 -0.636437875448839 -0.674318742002352 -0.374487736619682
-8.868767873640435 -2.586246053400330 4.927862679806308 -0.692049950250770 -0.233591069721626 0.683009574240518
-8.864183090635063 -5.653901454751590 2.646211668106861 -0.672498038104286 -0.646243065328321 0.360716355688154
-8.852151616292858 8.315399455453981 -4.501925829880692 -0.600872679366434 0.538768012105397 -0.590492211907152
-8.850259043012564 8.762106551061308 2.821159255324878 -0.650305134283421 0.495867636611747 0.575515872314312
-8.848886180715258 -4.897371235119863 -4.127870990180114 -0.501576768491736 -0.563117528212942 -0.656749110946284
-8.844077188617227 -2.952422783929951 -5.361970280292219 -0.462123466667559 -0.375717019208238 -0.803292364604839
-8.843564503036696 7.061538933035301 3.848318885559250 -0.542391482563825 0.394797533852436 0.741583701888230
-8.838436985151626 -4.494224241905272 4.043907963438659 -0.693889001322219 -0.455863101048016 0.557410878030685
-8.833030063352403 10.274424876864925 -0.823424976567058 -0.504241605348623 0.863014292731486 -0.030769042504048
-8.827641877850816 -5.690154095545012 2.649388336357974 -0.672498038104286 -0.646243065328321 0.360716355688154
-8.824360000127522 -2.706523236481154 4.931723227148315 -0.692049950250770 -0.233591069721626 0.683009574240518
-8.823192284093754 -5.752113233034567 2.590154121427060 -0.673152720690416 -0.647154078136418 0.357850546706993
-8.822652802826699 -0.088216932175989 -6.292043978970222 -0.516122592449906 -0.217152465313098 -0.828530190380068
-8.821327450620148 3.896431989249230 4.976344353799594 -0.567713830308713 0.228263279776453 0.790946826267042
-8.821015324795841 -6.186701034784363 -2.825116381810323 -0.632293851567151 -0.671225829002319 -0.386859627966691
-8.816683708861991 -6.384883116235997 0.948195699941282 -0.701282530278440 -0.691776958432198 0.172184356166772
-8.812807609429896 -5.762415898207948 2.591056901159567 -0.673152720690416 -0.647154078136418 0.357850546706993
-8.808896788592783 -6.430928037423538 1.008493682127026 -0.700159544678218 -0.689483102285052 0.185444502909553
-8.806325324982954 9.645796318910428 -2.924437691989982 -0.579282176898949 0.718854782228680 -0.384291506013562
-8.802422934766042 -5.772718563381325 2.591959680892073 -0.673152720690416 -0.647154078136418 0.357850546706993
-8.801256058790004 6.677713884824350 -5.629879793349702 -0.559543166589534 0.286906068047193 -0.777557941789971
-8.797903863780345 -6.655398326175479 -0.975267446962727 -0.701401864688771 -0.711166693872159 -0.047721669481037
-8.794515247441247 8.897467278366509 2.738725778051395 -0.440152293100795 0.659097438700409 0.609800397816099
-8.792038260102185 -5.783021228554706 2.592862460624579 -0.673152720690416 -0.647154078136418 0.357850546706993
-8.791100665066573 -5.726406736338422 2.652565004609087 -0.672498038104286 -0.646243065328321 0.360716355688154
-8.790370738393550 -4.562278558695091 4.048086547245609 -0.693889001322219 -0.455863101048016 0.557410878030685
-8.786464356641147 9.935316926527408 1.302216965615612 -0.498346515706711 0.798410688322142 0.337921770615545
-8.781653585438328 -5.793323893728086 2.593765240357085 -0.673152720690416 -0.647154078136418 0.357850546706993
-8.779952126614612 -2.826800419561970 4.935583774490322 -0.692049950250770 -0.233591069721626 0.683009574240518
-8.778556613354901 -6.196363310595302 -2.812607807994089 -0.636437875448839 -0.674318742002352 -0.374487736619682
-8.774483524904756 -3.050956569201148 -5.355920235284152 -0.462123466667559 -0.375717019208238 -0.803292364604839
-8.771268910774474 -5.803626558901463 2.594668020089591 -0.673152720690416 -0.647154078136418 0.357850546706993
-8.768640684001443 -4.938663524383028 -4.180515975577001 -0.507226241237401 -0.568054241363030 -0.648101781412187
-8.760884236110616 -5.813929224074844 2.595570799822097 -0.673152720690416 -0.647154078136418 0.357850546706993
-8.756606314318812 8.431061966660206 -4.493619709087272 -0.600872679366434 0.538768012105397 -0.590492211907152
-8.754559452282326 -5.762659377131840 2.655741672860201 -0.672498038104286 -0.646243065328321 0.360716355688154
-8.752102837225181 -0.279299063738364 -6.285910798958744 -0.516122592449906 -0.217152465313098 -0.828530190380068
-8.750499561446759 -5.824231889248221 2.596473579554603 -0.673152720690416 -0.647154078136418 0.357850546706993
-8.742304491635478 -4.630332875484903 4.052265131052559 -0.693889001322219 -0.455863101048016 0.557410878030685
-8.740114886782905 -5.834534554421602 2.597376359287110 -0.673152720690416 -0.647154078136418 0.357850546706993
-8.735544253101700 -2.947077602642793 4.939444321832329 -0.692049950250770 -0.233591069721626 0.683009574240518
-8.732606593297920 -6.693577164494403 -0.892334919443912 -0.701923743222714 -0.711084008718016 -0.040774884987335
-8.731339147199197 7.197393508917045 3.858075067625889 -0.542391482563825 0.394797533852436 0.741583701888230
-8.729730212119048 -5.844837219594979 2.598279139019616 -0.673152720690416 -0.647154078136418 0.357850546706993
-8.728856822780912 9.969154382450638 1.307225010228670 -0.498346515706711 0.798410688322142 0.337921770615545
-8.724891935976515 10.337942942532864 -0.814024112999718 -0.504241605348623 0.863014292731486 -0.030769042504048
-8.724413796545406 9.715610675209291 -2.917316807597773 -0.579282176898949 0.718854782228680 -0.384291506013562
-8.723064234004871 4.111222573614782 4.984886753372292 -0.567713830308713 0.228263279776453 0.790946826267042
-8.718018239498086 -5.798912017925254 2.658918341111314 -0.672498038104286 -0.646243065328321 0.360716355688154
-8.708288039573819 -6.530742262539572 1.017239987858033 -0.700159544678218 -0.689483102285052 0.185444502909553
-8.704889861192285 -3.149490354472348 -5.349870190276084 -0.462123466667559 -0.375717019208238 -0.803292364604839
-8.702230708166645 0.065229310210711 -6.487205207314742 -0.471241681958785 -0.201549166893297 -0.858667112744673
-8.694238244877402 -4.698387192274723 4.056443714859508 -0.693889001322219 -0.455863101048016 0.557410878030685
-8.692485140560180 0.038833778821697 -6.486357987618249 -0.471241681958785 -0.201549166893297 -0.858667112744673
-8.691136379588789 -3.067354785723616 4.943304869174336 -0.692049950250770 -0.233591069721626 0.683009574240518
-8.690344065893605 -5.054661316683223 -4.114088314011372 -0.501576768491736 -0.563117528212942 -0.656749110946284
-8.684903187821540 -3.408468258456267 -5.230411266658512 -0.444927286223070 -0.433983173891068 -0.783388993255336
-8.683959593141406 1.270603022882909 -6.628579197618562 -0.459606592488849 -0.049929570497901 -0.886718003725358
-8.682739572953714 0.012438247432684 -6.485510767921756 -0.471241681958785 -0.201549166893297 -0.858667112744673
-8.681552871623662 -0.470381195300746 -6.279777618947266 -0.516122592449906 -0.217152465313098 -0.828530190380068
-8.681477026713839 -5.835164658718671 2.662095009362428 -0.672498038104286 -0.646243065328321 0.360716355688154
-8.679775742335652 1.225630856853400 -6.628215479367050 -0.459606592488849 -0.049929570497901 -0.886718003725358
-8.677487822217806 8.966206730959897 2.748899422489850 -0.440152293100795 0.659097438700409 0.609800397816099
-8.675591891529898 1.180658690823890 -6.627851761115537 -0.459606592488849 -0.049929570497901 -0.886718003725358
-8.674805854408202 -6.299294732667882 -2.803588355248475 -0.636437875448839 -0.674318742002352 -0.374487736619682
-8.672994005347249 -0.013957283956330 -6.484663548225264 -0.471241681958785 -0.201549166893297 -0.858667112744673
-8.672312846744676 2.753027757452067 -6.641050034117841 -0.448966013650287 -0.003067440602267 -0.893543568828695
-8.671408040724145 1.135686524794380 -6.627488042864025 -0.459606592488849 -0.049929570497901 -0.886718003725358
-8.671380392400859 2.592935790504967 -6.640968972273312 -0.448966013650287 -0.003067440602267 -0.893543568828695
-8.671249288920684 10.002991838373868 1.312233054841727 -0.498346515706711 0.798410688322142 0.337921770615545
-8.670447938057045 2.432843823557874 -6.640887910428783 -0.448966013650287 -0.003067440602267 -0.893543568828695
-8.669515483713228 2.272751856610782 -6.640806848584254 -0.448966013650287 -0.003067440602267 -0.893543568828695
-8.668583029369412 2.112659889663682 -6.640725786739725 -0.448966013650287 -0.003067440602267 -0.893543568828695
-8.667650575025595 1.952567922716590 -6.640644724895196 -0.448966013650287 -0.003067440602267 -0.893543568828695
-8.667224189918391 1.090714358764870 -6.627124324612512 -0.459606592488849 -0.049929570497901 -0.886718003725358
-8.666718120681779 1.792475955769490 -6.640563663050667 -0.448966013650287 -0.003067440602267 -0.893543568828695
-8.665785666337962 1.632383988822397 -6.640482601206139 -0.448966013650287 -0.003067440602267 -0.893543568828695
-8.665757824471456 -6.534617113997502 0.961316267888642 -0.701282530278440 -0.691776958432198 0.172184356166772
-8.664853211994146 1.472292021875305 -6.640401539361609 -0.448966013650287 -0.003067440602267 -0.893543568828695
-8.663920757650329 1.312200054928205 -6.640320477517080 -0.448966013650287 -0.003067440602267 -0.893543568828695
-8.663248437740783 -0.040352815345344 -6.483816328528771 -0.471241681958785 -0.201549166893297 -0.858667112744673
-8.663040339112637 1.045742192735361 -6.626760606361000 -0.459606592488849 -0.049929570497901 -0.886718003725358
-8.661061012344767 8.546724477866427 -4.485313588293852 -0.600872679366434 0.538768012105397 -0.590492211907152
-8.658856488306885 1.000770026705851 -6.626396888109487 -0.459606592488849 -0.049929570497901 -0.886718003725358
-8.655797893481434 1.231347527571508 -6.643580034889856 -0.463211842848676 -0.050249639036372 -0.884821881748778
-8.654672637501131 0.955797860676341 -6.626033169857974 -0.459606592488849 -0.049929570497901 -0.886718003725358
-8.653502870134314 -0.066748346734357 -6.482969108832279 -0.471241681958785 -0.201549166893297 -0.858667112744673
-8.653381272361864 0.786108934687086 -6.614855653459639 -0.452235864870025 -0.096164859117004 -0.886698958156751
-8.653127057493844 1.202638741085558 -6.643347848839114 -0.463211842848676 -0.050249639036372 -0.884821881748778
-8.652990987476175 0.783960690469037 -6.614821724492568 -0.452235864870025 -0.096164859117004 -0.886698958156751
-8.652600702590485 0.781812446250981 -6.614787795525499 -0.452235864870025 -0.096164859117004 -0.886698958156751
-8.652210417704795 0.779664202032926 -6.614753866558428 -0.452235864870025 -0.096164859117004 -0.886698958156751
-8.651820132819106 0.777515957814877 -6.614719937591358 -0.452235864870025 -0.096164859117004 -0.886698958156751
-8.651429847933416 0.775367713596822 -6.614686008624288 -0.452235864870025 -0.096164859117004 -0.886698958156751
-8.651039563047727 0.773219469378773 -6.614652079657218 -0.452235864870025 -0.096164859117004 -0.886698958156751
-8.650909024946476 -6.801232322496151 -0.962488619933691 -0.701401864688771 -0.711166693872159 -0.047721669481037
-8.650649278162037 0.771071225160718 -6.614618150690148 -0.452235864870025 -0.096164859117004 -0.886698958156751
-8.650488786695378 0.910825694646839 -6.625669451606462 -0.459606592488849 -0.049929570497901 -0.886718003725358
-8.650456221506255 1.173929954599608 -6.643115662788372 -0.463211842848676 -0.050249639036372 -0.884821881748778
-8.650258993276347 0.768922980942669 -6.614584221723078 -0.452235864870025 -0.096164859117004 -0.886698958156751
-8.649868708390658 0.766774736724614 -6.614550292756007 -0.452235864870025 -0.096164859117004 -0.886698958156751
-8.647785385518667 1.145221168113657 -6.642883476737629 -0.463211842848676 -0.050249639036372 -0.884821881748778
-8.646728506075879 -3.187631968804439 4.947165416516342 -0.692049950250770 -0.233591069721626 0.683009574240518
-8.646304935889624 0.865853528617322 -6.625305733354949 -0.459606592488849 -0.049929570497901 -0.886718003725358
-8.646171998119327 -4.766441509064542 4.060622298666459 -0.693889001322219 -0.455863101048016 0.557410878030685
-8.645114549531076 1.116512381627700 -6.642651290686887 -0.463211842848676 -0.050249639036372 -0.884821881748778
-8.644935813929600 -5.871417299512085 2.665271677613541 -0.672498038104286 -0.646243065328321 0.360716355688154
-8.643757302527849 -0.093143878123378 -6.482121889135787 -0.471241681958785 -0.201549166893297 -0.858667112744673
-8.642502268107854 9.785425031508154 -2.910195923205564 -0.579282176898949 0.718854782228680 -0.384291506013562
-8.642443713543488 1.087803595141743 -6.642419104636145 -0.463211842848676 -0.050249639036372 -0.884821881748778
-8.640056162439656 -5.066232592746921 -4.169337628277974 -0.507226241237401 -0.568054241363030 -0.648101781412187
-8.639772877555899 1.059094808655793 -6.642186918585403 -0.463211842848676 -0.050249639036372 -0.884821881748778
-8.637102041568308 1.030386022169836 -6.641954732534661 -0.463211842848676 -0.050249639036372 -0.884821881748778
-8.635296197479814 -3.248024139743549 -5.343820145268016 -0.462123466667559 -0.375717019208238 -0.803292364604839
-8.634431205580720 1.001677235683886 -6.641722546483918 -0.463211842848676 -0.050249639036372 -0.884821881748778
-8.634011734921383 -0.119539409512392 -6.481274669439293 -0.471241681958785 -0.201549166893297 -0.858667112744673
-8.633731389321500 -3.468960657773010 -5.225962705287349 -0.444927286223070 -0.433983173891068 -0.783388993255336
-8.631760369593131 0.972968449197936 -6.641490360433176 -0.463211842848676 -0.050249639036372 -0.884821881748778
-8.624801017389595 4.326013157980334 4.993429152944991 -0.567713830308713 0.228263279776453 0.790946826267042
-8.624266167314918 -0.145934940901405 -6.480427449742801 -0.471241681958785 -0.201549166893297 -0.858667112744673
-8.619113791361698 7.333248084798786 3.867831249692528 -0.542391482563825 0.394797533852436 0.741583701888230
-8.616753808600627 10.401461008200807 -0.804623249432378 -0.504241605348623 0.863014292731486 -0.030769042504048
-8.614520599708452 -0.172330472290419 -6.479580230046309 -0.471241681958785 -0.201549166893297 -0.858667112744673
-8.613641755060456 10.036829294297098 1.317241099454785 -0.498346515706711 0.798410688322142 0.337921770615545
-8.611002906022144 -0.661463326863128 -6.273644438935788 -0.516122592449906 -0.217152465313098 -0.828530190380068
-8.608394601145353 -5.907669940305503 2.668448345864654 -0.672498038104286 -0.646243065328321 0.360716355688154
-8.607679290554859 -6.630556487655600 1.025986293589039 -0.700159544678218 -0.689483102285052 0.185444502909553
-8.602320632562970 -3.307909151885255 4.951025963858349 -0.692049950250770 -0.233591069721626 0.683009574240518
-8.598105751361251 -4.834495825854368 4.064800882473408 -0.693889001322219 -0.455863101048016 0.557410878030685
-8.582559590821464 -3.529453057089746 -5.221514143916187 -0.444927286223070 -0.433983173891068 -0.783388993255336
-8.571055095461503 -6.402226154740465 -2.794568902502862 -0.636437875448839 -0.674318742002352 -0.374487736619682
-8.565515710370722 8.662386989072647 -4.477007467500433 -0.600872679366434 0.538768012105397 -0.590492211907152
-8.564572341788693 8.662751800920404 -4.477506901912085 -0.481650138979595 0.627506497832447 -0.611758725968820
-8.560809842819680 -6.864017207668041 -0.877399966788920 -0.701923743222714 -0.711084008718016 -0.040774884987335
-8.560590739670310 9.855239387807011 -2.903075038813355 -0.579282176898949 0.718854782228680 -0.384291506013562
-8.560460396994365 9.034946183553281 2.759073066928305 -0.440152293100795 0.659097438700409 0.609800397816099
-8.556034221200221 10.070666750220328 1.322249144067843 -0.498346515706711 0.798410688322142 0.337921770615545
-8.550039504603182 -4.902550142644181 4.068979466280358 -0.693889001322219 -0.455863101048016 0.557410878030685
-8.544885017210486 8.679531586609819 -4.475795407022569 -0.481650138979595 0.627506497832447 -0.611758725968820
-8.540452940420625 -0.852545458425503 -6.267511258924310 -0.516122592449906 -0.217152465313098 -0.828530190380068
-8.531801951071945 -5.211951398246590 -4.100305637842630 -0.501576768491736 -0.563117528212942 -0.656749110946284
-8.531387792321425 -3.589945456406497 -5.217065582545024 -0.444927286223070 -0.433983173891068 -0.783388993255336
-8.526537800774319 4.540803742345886 5.001971552517690 -0.567713830308713 0.228263279776453 0.790946826267042
-8.525197692632279 8.696311372299231 -4.474083912133053 -0.481650138979595 0.627506497832447 -0.611758725968820
-8.517672200392237 6.830742964346626 -5.750549564007898 -0.481047895550771 0.378762535757137 -0.790652808565806
-8.517510865257435 -1.300871005071418 -6.161558366696176 -0.418105838213276 -0.287417068796219 -0.861730199434001
-8.514831940080921 -6.684351111759007 0.974436835836002 -0.701282530278440 -0.691776958432198 0.172184356166772
-8.511471640877861 -5.193801661110815 -4.158159280978946 -0.507226241237401 -0.568054241363030 -0.648101781412187
-8.508615681224740 10.464979073868745 -0.795222385865038 -0.504241605348623 0.863014292731486 -0.030769042504048
-8.507070541535896 -6.730370712771638 1.034732599320046 -0.700159544678218 -0.689483102285052 0.185444502909553
-8.506888435524193 7.469102660680537 3.877587431759167 -0.542391482563825 0.394797533852436 0.741583701888230
-8.505510368054075 8.713091157988639 -4.472372417243538 -0.481650138979595 0.627506497832447 -0.611758725968820
-8.503914186112613 -6.947066318816816 -0.949709792904655 -0.701401864688771 -0.711166693872159 -0.047721669481037
-8.501973257845107 -4.970604459434000 4.073158050087308 -0.693889001322219 -0.455863101048016 0.557410878030685
-8.498426687339986 10.104504206143561 1.327257188680901 -0.498346515706711 0.798410688322142 0.337921770615545
-8.485823043475868 8.729870943678055 -4.470660922354021 -0.481650138979595 0.627506497832447 -0.611758725968820
-8.480215993821382 -3.650437855723240 -5.212617021173860 -0.444927286223070 -0.433983173891068 -0.783388993255336
-8.478679211232762 9.925053744105874 -2.895954154421145 -0.579282176898949 0.718854782228680 -0.384291506013562
-8.469902974819107 -1.043627589987878 -6.261378078912833 -0.516122592449906 -0.217152465313098 -0.828530190380068
-8.468995478243649 6.901398327440141 -5.746317909225921 -0.481047895550771 0.378762535757137 -0.790652808565806
-8.466135718897661 8.746650729367467 -4.468949427464505 -0.481650138979595 0.627506497832447 -0.611758725968820
-8.460099366009615 -6.497332788572745 -2.801091772107316 -0.566085621738008 -0.721737443879121 -0.398299047154680
-8.453907011087031 -5.038658776223819 4.077336633894259 -0.693889001322219 -0.455863101048016 0.557410878030685
-8.451085094405904 -1.414814102523216 -6.155783718805705 -0.418105838213276 -0.287417068796219 -0.861730199434001
-8.446448394319450 8.763430515056882 -4.467237932574989 -0.481650138979595 0.627506497832447 -0.611758725968820
-8.443432971770925 9.103685636146668 2.769246711366760 -0.440152293100795 0.659097438700409 0.609800397816099
-8.442980370027776 -1.006656176643830 -6.287073703984389 -0.417488798839703 -0.287078232158177 -0.862142210696308
-8.440819153479758 10.138341662066791 1.332265233293959 -0.498346515706711 0.798410688322142 0.337921770615545
-8.430912571754064 -6.521625330129929 -2.798554451761360 -0.566085621738008 -0.721737443879121 -0.398299047154680
-8.429044195321350 -3.710930255039976 -5.208168459802697 -0.444927286223070 -0.433983173891068 -0.783388993255336
-8.428274584159043 4.755594326711446 5.010513952090388 -0.567713830308713 0.228263279776453 0.790946826267042
-8.426761069741250 8.780210300746290 -4.465526437685473 -0.481650138979595 0.627506497832447 -0.611758725968820
-8.420318756095057 6.972053690533656 -5.742086254443944 -0.481047895550771 0.378762535757137 -0.790652808565806
-8.414931586923718 4.224296913893610 -6.622872768405589 -0.418324510303888 0.226360681560054 -0.879639384022044
-8.407073745163039 8.796990086435702 -4.463814942795957 -0.481650138979595 0.627506497832447 -0.611758725968820
-8.401725777498513 -6.545917871687120 -2.796017131415403 -0.566085621738008 -0.721737443879121 -0.398299047154680
-8.400477553848852 10.528497139536688 -0.785821522297697 -0.504241605348623 0.863014292731486 -0.030769042504048
-8.396767682795211 9.994868100404737 -2.888833270028936 -0.579282176898949 0.718854782228680 -0.384291506013562
-8.394663079686687 7.604957236562285 3.887343613825806 -0.542391482563825 0.394797533852436 0.741583701888230
-8.389013092341443 -7.034457250841680 -0.862465014133929 -0.701923743222714 -0.711084008718016 -0.040774884987335
-8.387386420584832 8.813769872125118 -4.462103447906441 -0.481650138979595 0.627506497832447 -0.611758725968820
-8.384659323554374 -1.528757199975015 -6.150009070915234 -0.418105838213276 -0.287417068796219 -0.861730199434001
-8.383211619619523 10.172179117990021 1.337273277907016 -0.498346515706711 0.798410688322142 0.337921770615545
-8.382887119316074 -5.321370729474708 -4.146980933679920 -0.507226241237401 -0.568054241363030 -0.648101781412187
-8.377872396821306 -3.771422654356726 -5.203719898431533 -0.444927286223070 -0.433983173891068 -0.783388993255336
-8.373259836250288 -5.369241479809954 -4.086522961673889 -0.501576768491736 -0.563117528212942 -0.656749110946284
-8.372538983242968 -6.570210413244308 -2.793479811069448 -0.566085621738008 -0.721737443879121 -0.398299047154680
-8.371642033946468 7.042709053627171 -5.737854599661967 -0.481047895550771 0.378762535757137 -0.790652808565806
-8.366531436078548 -0.004150939876823 5.772903007877868 -0.590149575298137 -0.003028554587858 0.807288242595256
-8.366322122403794 -0.040087753429574 5.772921204321129 -0.590149575298137 -0.003028554587858 0.807288242595256
-8.366112808729040 -0.076024566982319 5.772939400764390 -0.590149575298137 -0.003028554587858 0.807288242595256
-8.365903495054289 -0.111961380535064 5.772957597207650 -0.590149575298137 -0.003028554587858 0.807288242595256
-8.365694181379535 -0.147898194087823 5.772975793650912 -0.590149575298137 -0.003028554587858 0.807288242595256
-8.365484867704781 -0.183835007640567 5.772993990094172 -0.590149575298137 -0.003028554587858 0.807288242595256
-8.365275554030028 -0.219771821193312 5.773012186537433 -0.590149575298137 -0.003028554587858 0.807288242595256
-8.365066240355274 -0.255708634746057 5.773030382980695 -0.590149575298137 -0.003028554587858 0.807288242595256
-8.364856926680520 -0.291645448298809 5.773048579423955 -0.590149575298137 -0.003028554587858 0.807288242595256
-8.364647613005769 -0.327582261851553 5.773066775867216 -0.590149575298137 -0.003028554587858 0.807288242595256
-8.363906055690386 -6.834085109520512 0.987557403783362 -0.701282530278440 -0.691776958432198 0.172184356166772
-8.357861958360569 4.349043683751525 -6.617911485970061 -0.418324510303888 0.226360681560054 -0.879639384022044
-8.351482890742876 -5.102747133368354 4.136808851528946 -0.612634308285941 -0.569487168871364 0.548054348401584
-8.350058675453031 -3.962285469221239 -5.111083643590604 -0.443485112370973 -0.511507024941321 -0.735990161986547
-8.347161678689162 3.301125435101419 -6.782951374856932 -0.435187755002063 0.087053609613710 -0.896121245674651
-8.343352188987417 -6.594502954801499 -2.790942490723491 -0.566085621738008 -0.721737443879121 -0.398299047154680
-8.342894698194915 -1.178337608608999 -6.278372871366161 -0.417488798839703 -0.287078232158177 -0.862142210696308
-8.341801847391018 -6.265661618374626 2.478957546742241 -0.613475755770538 -0.698613430796754 0.368221090368486
-8.339431481287837 3.346686956490352 -6.782279359048244 -0.435187755002063 0.087053609613710 -0.896121245674651
-8.331701283886513 3.392248477879285 -6.781607343239557 -0.435187755002063 0.087053609613710 -0.896121245674651
-8.331524992975016 -5.122547420322210 4.138543868387102 -0.612634308285941 -0.569487168871364 0.548054348401584
-8.330011367543767 4.970384911076998 5.019056351663087 -0.567713830308713 0.228263279776453 0.790946826267042
-8.326700598321267 -3.831915053673470 -5.199271337060370 -0.444927286223070 -0.433983173891068 -0.783388993255336
-8.326405546547484 9.172425088740056 2.779420355805216 -0.440152293100795 0.659097438700409 0.609800397816099
-8.325604085759295 10.206016573913251 1.342281322520074 -0.498346515706711 0.798410688322142 0.337921770615545
-8.323971086485191 3.437809999268218 -6.780935327430869 -0.435187755002063 0.087053609613710 -0.896121245674651
-8.322965311797876 7.113364416720685 -5.733622944879990 -0.481047895550771 0.378762535757137 -0.790652808565806
-8.321418902601714 10.075895192522331 -2.832103945721078 -0.443099416877393 0.810929797213181 -0.382172435890794
-8.318233552702846 -1.642700297426817 -6.144234423024764 -0.418105838213276 -0.287417068796219 -0.861730199434001
-8.316240889083865 3.483371520657151 -6.780263311622182 -0.435187755002063 0.087053609613710 -0.896121245674651
-8.314567590721580 10.079919509277889 -2.831508334813017 -0.443099416877393 0.810929797213181 -0.382172435890794
-8.314165394731866 -6.618795496358686 -2.788405170377535 -0.566085621738008 -0.721737443879121 -0.398299047154680
-8.311567095207160 -5.142347707276063 4.140278885245258 -0.612634308285941 -0.569487168871364 0.548054348401584
-8.308510691682541 3.528933042046098 -6.779591295813495 -0.435187755002063 0.087053609613710 -0.896121245674651
-8.307716278841454 10.083943826033448 -2.830912723904956 -0.443099416877393 0.810929797213181 -0.382172435890794
-8.300864966961328 10.087968142789006 -2.830317112996894 -0.443099416877393 0.810929797213181 -0.382172435890794
-8.300792329797421 4.473790453609432 -6.612950203534533 -0.418324510303888 0.226360681560054 -0.879639384022044
-8.300780494281216 3.574494563435032 -6.778919280004807 -0.435187755002063 0.087053609613710 -0.896121245674651
-8.294013655081201 10.091992459544567 -2.829721502088833 -0.443099416877393 0.810929797213181 -0.382172435890794
-8.293050296879892 3.620056084823965 -6.778247264196120 -0.435187755002063 0.087053609613710 -0.896121245674651
-8.292339426472964 10.592015205204630 -0.776420658730357 -0.504241605348623 0.863014292731486 -0.030769042504048
-8.291609197439300 -5.162147994229919 4.142013902103414 -0.612634308285941 -0.569487168871364 0.548054348401584
-8.287162343201075 10.096016776300125 -2.829125891180772 -0.443099416877393 0.810929797213181 -0.382172435890794
-8.285320099478568 3.665617606212898 -6.777575248387432 -0.435187755002063 0.087053609613710 -0.896121245674651
-8.284978600476315 -6.643088037915877 -2.785867850031578 -0.566085621738008 -0.721737443879121 -0.398299047154680
-8.282437723849188 7.740811812444029 3.897099795892445 -0.542391482563825 0.394797533852436 0.741583701888230
-8.280311031320942 10.100041093055683 -2.828530280272711 -0.443099416877393 0.810929797213181 -0.382172435890794
-8.277589902077246 3.711179127601831 -6.776903232578745 -0.435187755002063 0.087053609613710 -0.896121245674651
-8.275528799821231 -3.892407452990206 -5.194822775689207 -0.444927286223070 -0.433983173891068 -0.783388993255336
-8.274288589649284 7.184019779814193 -5.729391290098012 -0.481047895550771 0.378762535757137 -0.790652808565806
-8.273459719440815 10.104065409811241 -2.827934669364649 -0.443099416877393 0.810929797213181 -0.382172435890794
-8.272250367186093 9.001507836759890 -4.333476752948975 -0.361276709417816 0.705333479953342 -0.609904764114156
-8.271651299671440 -5.181948281183772 4.143748918961569 -0.612634308285941 -0.569487168871364 0.548054348401584
-8.271143096371777 -6.718205394968585 -2.690272673820841 -0.569509881404794 -0.724754969062143 -0.387799857919041
-8.267996551899060 10.239854029836481 1.347289367133132 -0.498346515706711 0.798410688322142 0.337921770615545
-8.266608407560689 10.108089726566799 -2.827339058456589 -0.443099416877393 0.810929797213181 -0.382172435890794
-8.263894152301258 -3.417342369493515 5.221282149267754 -0.613703673954162 -0.321220335058379 0.721238723946618
-8.259757095680555 10.112114043322361 -2.826743447548528 -0.443099416877393 0.810929797213181 -0.382172435890794
-8.257013354175559 -6.729965759827042 -2.689044320955375 -0.569509881404794 -0.724754969062143 -0.387799857919041
-8.256764694958196 -3.429571846734131 5.221901940431312 -0.613703673954162 -0.321220335058379 0.721238723946618
-8.255791806220770 -6.667380579473061 -2.783330529685622 -0.566085621738008 -0.721737443879121 -0.398299047154680
-8.254302597754283 -5.448939797838605 -4.135802586380892 -0.507226241237401 -0.568054241363030 -0.648101781412187
-8.251807781851316 -1.756643394878612 -6.138459775134293 -0.418105838213276 -0.287417068796219 -0.861730199434001
-8.251693401903584 -5.201748568137624 4.145483935819725 -0.612634308285941 -0.569487168871364 0.548054348401584
-8.249635237615131 -3.441801323974747 5.222521731594870 -0.613703673954162 -0.321220335058379 0.721238723946618
-8.243722701234272 4.598537223467346 -6.607988921099004 -0.418324510303888 0.226360681560054 -0.879639384022044
-8.242883611979341 -6.741726124685499 -2.687815968089909 -0.569509881404794 -0.724754969062143 -0.387799857919041
-8.242809026362050 -1.350019040574175 -6.269672038747931 -0.417488798839703 -0.287078232158177 -0.862142210696308
-8.242505780272069 -3.454030801215364 5.223141522758429 -0.613703673954162 -0.321220335058379 0.721238723946618
-8.235376322929007 -3.466260278455973 5.223761313921987 -0.613703673954162 -0.321220335058379 0.721238723946618
-8.231748150928491 5.185175495442550 5.027598751235786 -0.567713830308713 0.228263279776453 0.790946826267042
-8.231735504135724 -5.221548855091481 4.147218952677881 -0.612634308285941 -0.569487168871364 0.548054348401584
-8.228753869783123 -6.753486489543956 -2.686587615224442 -0.569509881404794 -0.724754969062143 -0.387799857919041
-8.228246865585941 -3.478489755696589 5.224381105085545 -0.613703673954162 -0.321220335058379 0.721238723946618
-8.226605011965212 -6.691673121030252 -2.780793209339666 -0.566085621738008 -0.721737443879121 -0.398299047154680
-8.225611867500692 7.254675142907708 -5.725159635316035 -0.481047895550771 0.378762535757137 -0.790652808565806
-8.224357001321192 -3.952899852306956 -5.190374214318044 -0.444927286223070 -0.433983173891068 -0.783388993255336
-8.221117408242879 -3.490719232937206 5.225000896249103 -0.613703673954162 -0.321220335058379 0.721238723946618
-8.214717721428634 -5.526531561373314 -4.072740285505147 -0.501576768491736 -0.563117528212942 -0.656749110946284
-8.214624127586905 -6.765246854402413 -2.685359262358976 -0.569509881404794 -0.724754969062143 -0.387799857919041
-8.213987950899817 -3.502948710177815 5.225620687412661 -0.613703673954162 -0.321220335058379 0.721238723946618
-8.212980171299851 -6.983819107282017 1.000677971730722 -0.701282530278440 -0.691776958432198 0.172184356166772
-8.211777606367864 -5.241349142045337 4.148953969536037 -0.612634308285941 -0.569487168871364 0.548054348401584
-8.209378121324043 9.241164541333443 2.789594000243671 -0.440152293100795 0.659097438700409 0.609800397816099
-8.207730319507277 -7.194368259116608 -0.931312593087394 -0.635458142177793 -0.769779673115601 -0.060267772465772
-8.206858493556755 -3.515178187418432 5.226240478576219 -0.613703673954162 -0.321220335058379 0.721238723946618
-8.200494385390687 -6.777007219260870 -2.684130909493510 -0.569509881404794 -0.724754969062143 -0.387799857919041
-8.199729036213693 -3.527407664659048 5.226860269739777 -0.613703673954162 -0.321220335058379 0.721238723946618
-8.197418217709668 -6.715965662587440 -2.778255888993710 -0.566085621738008 -0.721737443879121 -0.398299047154680
-8.194576604417463 -6.388199068081772 2.491756403689818 -0.613475755770538 -0.698613430796754 0.368221090368486
-8.191819708600008 -5.261149428999190 4.150688986394193 -0.612634308285941 -0.569487168871364 0.548054348401584
-8.191131219973155 5.815070757979822 4.863176559891957 -0.472125994939381 0.331345425605272 0.816888764663195
-8.187812375161798 -4.123250483689915 -5.096978948323949 -0.443485112370973 -0.511507024941321 -0.735990161986547
-8.186653072671124 4.723283993325254 -6.603027638663475 -0.418324510303888 0.226360681560054 -0.879639384022044
-8.186364643194469 -6.788767584119327 -2.682902556628043 -0.569509881404794 -0.724754969062143 -0.387799857919041
-8.185382010999785 -1.870586492330421 -6.132685127243822 -0.418105838213276 -0.287417068796219 -0.861730199434001
-8.184201299097076 10.655533270872569 -0.767019795163017 -0.504241605348623 0.863014292731486 -0.030769042504048
-8.176935145352104 7.325330506001222 -5.720927980534058 -0.481047895550771 0.378762535757137 -0.790652808565806
-8.172234900998252 -6.800527948977784 -2.681674203762577 -0.569509881404794 -0.724754969062143 -0.387799857919041
-8.171861810832148 -5.280949715953042 4.152424003252349 -0.612634308285941 -0.569487168871364 0.548054348401584
-8.170212368011686 7.876666388325773 3.906855977959084 -0.542391482563825 0.394797533852436 0.741583701888230
-8.160415435334848 -7.233749041396727 -0.927199328121528 -0.635458142177793 -0.769779673115601 -0.060267772465772
-8.158105158802034 -6.812288313836245 -2.680445850897110 -0.569509881404794 -0.724754969062143 -0.387799857919041
-8.143975416605816 -6.824048678694702 -2.679217498031644 -0.569509881404794 -0.724754969062143 -0.387799857919041
-8.142723354529188 -1.521700472539337 -6.260971206129702 -0.417488798839703 -0.287078232158177 -0.862142210696308
-8.133484934313215 5.399966079808102 5.036141150808485 -0.567713830308713 0.228263279776453 0.790946826267042
-8.129583444107976 4.848030763183161 -6.598066356227947 -0.418324510303888 0.226360681560054 -0.879639384022044
-8.128258423203512 7.395985869094737 -5.716696325752080 -0.481047895550771 0.378762535757137 -0.790652808565806
-8.123148476429510 -7.053010319918275 1.060757218381267 -0.637519606501756 -0.745758809346515 0.193423239575586
-8.118956240148258 -1.984529589782216 -6.126910479353351 -0.418105838213276 -0.287417068796219 -0.861730199434001
-8.118792035086805 9.091646039187728 -4.320136029576521 -0.361276709417816 0.705333479953342 -0.609904764114156
-8.113100551162415 -7.273129823676843 -0.923086063155663 -0.635458142177793 -0.769779673115601 -0.060267772465772
-8.096403772839496 -3.901911856570294 5.134993414307908 -0.592879225617409 -0.374988534781345 0.712655472590958
-8.092350696100603 9.309903993926831 2.799767644682127 -0.440152293100795 0.659097438700409 0.609800397816099
-8.087338641164934 5.940717022751578 4.872199648199070 -0.472125994939381 0.331345425605272 0.816888764663195
-8.086252287372645 10.371486647831713 1.219048847872295 -0.276761597273077 0.894860967037951 0.350181193022637
-8.080662281159785 -7.088372122765136 1.064450706838282 -0.637519606501756 -0.745758809346515 0.193423239575586
-8.079581701054920 7.466641232188248 -5.712464670970103 -0.481047895550771 0.378762535757137 -0.790652808565806
-8.076063171721188 10.719051336540508 -0.757618931595677 -0.504241605348623 0.863014292731486 -0.030769042504048
-8.072513815544827 4.972777533041068 -6.593105073792418 -0.418324510303888 0.226360681560054 -0.879639384022044
-8.067421633778476 7.564771928556556 -5.666180855382866 -0.364096358945724 0.506881146849630 -0.781348414198730
-8.065785666989981 -7.312510605956962 -0.918972798189797 -0.635458142177793 -0.769779673115601 -0.060267772465772
-8.059986898061908 8.041459601423750 3.897597312178556 -0.384705049762629 0.544657460714721 0.745218273511141
-8.057987012174181 8.012520964207521 3.916612160025724 -0.542391482563825 0.394797533852436 0.741583701888230
-8.056175606606978 -5.683821642936682 -4.058957609336406 -0.501576768491736 -0.563117528212942 -0.656749110946284
-8.052530469296727 -2.098472687234018 -6.121135831462881 -0.418105838213276 -0.287417068796219 -0.861730199434001
-8.047351361443909 -6.510736517788921 2.504555260637396 -0.613475755770538 -0.698613430796754 0.368221090368486
-8.044549645392399 -3.975329222271967 5.139501293160286 -0.592879225617409 -0.374988534781345 0.712655472590958
-8.042637682696324 -1.693381904504513 -6.252270373511473 -0.417488798839703 -0.287078232158177 -0.862142210696308
-8.038176085890061 -7.123733925611997 1.068144195295297 -0.637519606501756 -0.745758809346515 0.193423239575586
-8.032999700321067 -5.696574647596250 -4.064294042142906 -0.456914667718692 -0.615994597258465 -0.641700586388932
-8.025566074870554 -4.284215498158598 -5.082874253057294 -0.443485112370973 -0.511507024941321 -0.735990161986547
-8.018470782817548 -7.351891388237078 -0.914859533223931 -0.635458142177793 -0.769779673115601 -0.060267772465772
-8.015444186981679 5.097524302898982 -6.588143791356890 -0.418324510303888 0.226360681560054 -0.879639384022044
-8.012808901413337 7.611319134163899 -5.661433160388853 -0.364096358945724 0.506881146849630 -0.781348414198730
-8.012263943723832 2.275222587373072 5.894856034878821 -0.497493587072232 0.150677735015769 0.854281189651581
-8.007296168520590 2.289176206689191 5.895287902695031 -0.497493587072232 0.150677735015769 0.854281189651581
-8.002328393317351 2.303129826005303 5.895719770511241 -0.497493587072232 0.150677735015769 0.854281189651581
-8.002321958218968 -4.268956556669622 -5.140474587784880 -0.423637800700506 -0.493566573869780 -0.759554508232349
-7.997360618114110 2.317083445321423 5.896151638327451 -0.497493587072232 0.150677735015769 0.854281189651581
-7.995689890620330 -7.159095728458862 1.071837683752312 -0.637519606501756 -0.745758809346515 0.193423239575586
-7.992695517945299 -4.048746587973639 5.144009172012666 -0.592879225617409 -0.374988534781345 0.712655472590958
-7.992392842910869 2.331037064637535 5.896583506143662 -0.497493587072232 0.150677735015769 0.854281189651581
-7.987425067707628 2.344990683953654 5.897015373959872 -0.497493587072232 0.150677735015769 0.854281189651581
-7.986104698445200 -2.212415784685813 -6.115361183572410 -0.418105838213276 -0.287417068796219 -0.861730199434001
-7.983546062356709 6.066363287523341 4.881222736506183 -0.472125994939381 0.331345425605272 0.816888764663195
-7.982457292504389 2.358944303269766 5.897447241776081 -0.497493587072232 0.150677735015769 0.854281189651581
-7.977489517301146 2.372897922585885 5.897879109592292 -0.497493587072232 0.150677735015769 0.854281189651581
-7.975323270877162 9.378643446520218 2.809941289120582 -0.440152293100795 0.659097438700409 0.609800397816099
-7.972521742097907 2.386851541901997 5.898310977408502 -0.497493587072232 0.150677735015769 0.854281189651581
-7.971155898645108 -7.391272170517205 -0.910746268258065 -0.635458142177793 -0.769779673115601 -0.060267772465772
-7.967925044345300 10.782569402208450 -0.748218068028336 -0.504241605348623 0.863014292731486 -0.030769042504048
-7.967553966894664 2.400805161218109 5.898742845224712 -0.497493587072232 0.150677735015769 0.854281189651581
-7.965333702987529 9.181784241615562 -4.306795306204066 -0.361276709417816 0.705333479953342 -0.609904764114156
-7.958374558418530 5.222271072756890 -6.583182508921361 -0.418324510303888 0.226360681560054 -0.879639384022044
-7.958196169048197 7.657866339771243 -5.656685465394841 -0.364096358945724 0.506881146849630 -0.781348414198730
-7.953203695350606 -7.194457531305723 1.075531172209327 -0.637519606501756 -0.745758809346515 0.193423239575586
-7.952750410873499 -5.713484240107917 3.881549482810778 -0.583667722205360 -0.650499568125248 0.485985907125375
-7.951206461316271 -5.764652204871769 -4.057183441106307 -0.456914667718692 -0.615994597258465 -0.641700586388932
-7.949175787378287 8.106547721367548 3.907230548471442 -0.384705049762629 0.544657460714721 0.745218273511141
-7.942552010863462 -1.865063336469674 -6.243569540893244 -0.417488798839703 -0.287078232158177 -0.862142210696308
-7.940841390498205 -4.122163953675312 5.148517050865044 -0.592879225617409 -0.374988534781345 0.712655472590958
-7.923841014472679 -7.430652952797320 -0.906633003292200 -0.635458142177793 -0.769779673115601 -0.060267772465772
-7.919678927593669 -2.326358882137615 -6.109586535681939 -0.418105838213276 -0.287417068796219 -0.861730199434001
-7.912791836994163 2.791549304483731 5.853808263060563 -0.470482731099754 0.180889383681830 0.863669514691890
-7.910717500080882 -7.229819334152580 1.079224660666342 -0.637519606501756 -0.745758809346515 0.193423239575586
-7.903583436683057 7.704413545378586 -5.651937770400830 -0.364096358945724 0.506881146849630 -0.781348414198730
-7.902386163791292 -4.368103141627891 -5.131786784586265 -0.423637800700506 -0.493566573869780 -0.759554508232349
-7.901304929855382 5.347017842614797 -6.578221226485832 -0.418324510303888 0.226360681560054 -0.879639384022044
-7.900126118470357 -6.633273967496066 2.517354117584973 -0.613475755770538 -0.698613430796754 0.368221090368486
-7.898788042227331 10.423087965608584 1.235345836132871 -0.276761597273077 0.894860967037951 0.350181193022637
-7.894049473091965 2.832517669184298 5.855437608881964 -0.470482731099754 0.180889383681830 0.863669514691890
-7.888987263051105 -4.195581319376984 5.153024929717423 -0.592879225617409 -0.374988534781345 0.712655472590958
-7.879753483548487 6.192009552295097 4.890245824813297 -0.472125994939381 0.331345425605272 0.816888764663195
-7.876526130300245 -7.470033735077440 -0.902519738326334 -0.635458142177793 -0.769779673115601 -0.060267772465772
-7.875307109189766 2.873486033884859 5.857066954703365 -0.470482731099754 0.180889383681830 0.863669514691890
-7.869413222311476 -5.832729762147295 -4.050072840069706 -0.456914667718692 -0.615994597258465 -0.641700586388932
-7.868231304811157 -7.265181136999441 1.082918149123357 -0.637519606501756 -0.745758809346515 0.193423239575586
-7.863319774579320 -4.445180512627275 -5.068769557790638 -0.443485112370973 -0.511507024941321 -0.735990161986547
-7.858295845653721 9.447382899113606 2.820114933559037 -0.440152293100795 0.659097438700409 0.609800397816099
-7.856564745287571 2.914454398585420 5.858696300524766 -0.470482731099754 0.180889383681830 0.863669514691890
-7.848970704317917 7.750960750985925 -5.647190075406817 -0.364096358945724 0.506881146849630 -0.781348414198730
-7.842765791028430 -5.913595846161453 -4.021802383598503 -0.471003552834350 -0.630352416461318 -0.617099249941852
-7.842466339030597 -2.036744768434851 -6.234868708275014 -0.417488798839703 -0.287078232158177 -0.862142210696308
-7.838364676694674 8.171635841311343 3.916863784764328 -0.384705049762629 0.544657460714721 0.745218273511141
-7.837822381385372 2.955422763285981 5.860325646346166 -0.470482731099754 0.180889383681830 0.863669514691890
-7.837133135604011 -4.268998685078657 5.157532808569803 -0.592879225617409 -0.374988534781345 0.712655472590958
-7.829211246127812 -7.509414517357555 -0.898406473360469 -0.635458142177793 -0.769779673115601 -0.060267772465772
-7.828068880983096 -5.817258269545924 3.892388528023690 -0.583667722205360 -0.650499568125248 0.485985907125375
-7.825745109541430 -7.300542939846306 1.086611637580373 -0.637519606501756 -0.745758809346515 0.193423239575586
-7.819080017483174 2.996391127986541 5.861954992167567 -0.470482731099754 0.180889383681830 0.863669514691890
-7.811875370888245 9.271922444043399 -4.293454582831612 -0.361276709417816 0.705333479953342 -0.609904764114156
-7.802450369363608 -4.467249726586164 -5.123098981387651 -0.423637800700506 -0.493566573869780 -0.759554508232349
-7.800337653580975 3.037359492687102 5.863584337988968 -0.470482731099754 0.180889383681830 0.863669514691890
-7.794357971952770 7.797507956593275 -5.642442380412804 -0.364096358945724 0.506881146849630 -0.781348414198730
-7.792849799626484 -5.955141563203313 -4.017462994371176 -0.471003552834350 -0.630352416461318 -0.617099249941852
-7.787619983306687 -5.900807319422814 -4.042962239033107 -0.456914667718692 -0.615994597258465 -0.641700586388932
-7.785279008156911 -4.342416050780336 5.162040687422182 -0.592879225617409 -0.374988534781345 0.712655472590958
-7.783258914271705 -7.335904742693167 1.090305126037387 -0.637519606501756 -0.745758809346515 0.193423239575586
-7.781896361955379 -7.548795299637675 -0.894293208394603 -0.635458142177793 -0.769779673115601 -0.060267772465772
-7.781595289678780 3.078327857387663 5.865213683810369 -0.470482731099754 0.180889383681830 0.863669514691890
-7.775960904740266 6.317655817066861 4.899268913120411 -0.472125994939381 0.331345425605272 0.816888764663195
-7.762852925776581 3.119296222088224 5.866843029631769 -0.470482731099754 0.180889383681830 0.863669514691890
-7.752900875496806 -6.755811417203208 2.530152974532550 -0.613475755770538 -0.698613430796754 0.368221090368486
-7.744110561874383 3.160264586788792 5.868472375453170 -0.470482731099754 0.180889383681830 0.863669514691890
-7.742933808224535 -5.996687280245173 -4.013123605143849 -0.471003552834350 -0.630352416461318 -0.617099249941852
-7.742380667197736 -2.208426200400019 -6.226167875656786 -0.417488798839703 -0.287078232158177 -0.862142210696308
-7.741268420430281 9.516122351706993 2.830288577997493 -0.440152293100795 0.659097438700409 0.609800397816099
-7.740772719001981 -7.371266545540028 1.093998614494402 -0.637519606501756 -0.745758809346515 0.193423239575586
-7.739745239587634 7.844055162200618 -5.637694685418793 -0.364096358945724 0.506881146849630 -0.781348414198730
-7.733424880709814 -4.415833416482002 5.166548566274560 -0.592879225617409 -0.374988534781345 0.712655472590958
-7.728631176169893 3.422346751292984 5.815714467588620 -0.404146496602362 0.225335296382247 0.886504153113995
-7.727553566011061 8.236723961255141 3.926497021057213 -0.384705049762629 0.544657460714721 0.745218273511141
-7.717846352499173 10.323419021267284 -2.925660407174236 -0.365625433368574 0.841948702997158 -0.396787630849862
-7.711323797082024 10.474689283385455 1.251642824393446 -0.276761597273077 0.894860967037951 0.350181193022637
-7.705826744301891 -5.968884876698333 -4.035851637996508 -0.456914667718692 -0.615994597258465 -0.641700586388932
-7.703387351092694 -5.921032298983931 3.903227573236602 -0.583667722205360 -0.650499568125248 0.485985907125375
-7.702514574935929 -4.566396311544434 -5.114411178189037 -0.423637800700506 -0.493566573869780 -0.759554508232349
-7.701073474288076 -4.606145527095958 -5.054664862523984 -0.443485112370973 -0.511507024941321 -0.735990161986547
-7.699892222961702 -2.028612224248349 6.080130452603009 -0.541058658546422 -0.085083284713262 0.836669805045185
-7.698604259377936 -2.035701559304194 6.080242420233895 -0.541058658546422 -0.085083284713262 0.836669805045185
-7.697316295794171 -2.042790894360046 6.080354387864780 -0.541058658546422 -0.085083284713262 0.836669805045185
-7.696028332210404 -2.049880229415898 6.080466355495666 -0.541058658546422 -0.085083284713262 0.836669805045185
-7.694740368626639 -2.056969564471743 6.080578323126551 -0.541058658546422 -0.085083284713262 0.836669805045185
-7.693921100275965 10.334789031014463 -2.923580492925465 -0.365625433368574 0.841948702997158 -0.396787630849862
-7.693452405042874 -2.064058899527588 6.080690290757437 -0.541058658546422 -0.085083284713262 0.836669805045185
-7.693017816822589 -6.038232997287036 -4.008784215916522 -0.471003552834350 -0.630352416461318 -0.617099249941852
