ply
format ascii 1.0
element vertex 432
property double x
property double y
property double z
property double nx
property double ny
property double nz
end_header
-0.000863295644773 0.006381122745555 -0.813441440487131 -0.002182146102205 0.000894775567931 -0.999997218803668
-0.000805943741323 -0.008559682113177 -0.803971807885418 -0.018924824872190 0.014414650232945 -0.999716994385020
-0.000784939727596 0.011453336623126 -0.811358121314754 0.046713986983620 0.006319482797109 -0.998888315857820
-0.000753678391643 -0.008710847792158 -0.805108163797624 0.030183606563819 0.039627702302884 -0.998758526924799
-0.000737307844342 -0.338078738839025 0.791661285503192 -0.072190777566803 -0.114213143893553 0.990829879139830
-0.000704832849686 -0.008366622099661 -0.804539985841521 0.021911762144894 0.014069380675346 -0.999660906111226
-0.000695110775063 0.026759513549266 -0.812683869878994 0.047405171287638 0.002239070837120 -0.998873233346943
-0.000549084430944 -0.338197709336694 0.791661285503192 -0.072190777566803 -0.114213143893553 0.990829879139830
-0.000514221087602 -0.625750184159877 -0.694502855009618 -0.137466005790684 -0.335247093766247 -0.932047468412012
-0.000502471682623 0.022680996236442 -0.812683869878994 0.047405171287638 0.002239070837120 -0.998873233346943
-0.000360861017546 -0.338316679834364 0.791661285503192 -0.072190777566803 -0.114213143893553 0.990829879139830
-0.000309832590182 0.018602478923618 -0.812683869878994 0.047405171287638 0.002239070837120 -0.998873233346943
-0.000177818205336 -0.008162032740908 -0.805297556449658 0.024806560626834 0.007918796799354 -0.999660906111226
-0.000172637604148 -0.338435650332034 0.791661285503192 -0.072190777566803 -0.114213143893553 0.990829879139830
-0.000139478016620 -0.015736708155694 -0.819502005352227 0.025893096994764 -0.008062709332425 -0.999632202485614
-0.000117193497742 0.014523961610794 -0.812683869878994 0.047405171287638 0.002239070837120 -0.998873233346943
-0.000011603188363 -0.540658563334007 0.749426724099552 -0.173996741912024 -0.228438277433245 0.957883650140941
0.000015585809249 -0.338554620829704 0.791661285503192 -0.072190777566803 -0.114213143893553 0.990829879139830
0.000053846082018 -0.013385680813288 -0.805108163797624 0.020602153951832 0.015925578338863 -0.999660906111226
0.000061295466598 0.006526861120940 -0.780108333729102 0.000000000000000 0.000000000000000 -1.000000000000000
0.000075445594699 0.010445444297970 -0.812683869878994 0.047405171287638 0.002239070837120 -0.998873233346943
0.000128927373093 -1.113626037122097 0.401701814964658 0.108358208439195 -0.800990223584877 0.588789572245718
0.000151097631110 -0.009399997097117 -0.805108163797624 0.030183606563819 0.039627702302884 -0.998758526924799
0.000177159317436 -0.052457634128617 -0.796964279760151 -0.001158570407557 -0.000261184795364 -0.999999294748308
0.000203809222647 -0.338673591327374 0.791661285503192 -0.072190777566803 -0.114213143893553 0.990829879139830
0.000268084687139 0.006366926985146 -0.812683869878994 0.047405171287638 0.002239070837120 -0.998873233346943
0.000275244813110 -0.961571756526867 0.557761360240885 -0.025105856915909 -0.626231625301065 0.779232729947417
0.000315678395991 -0.003359760830835 -0.806055127057795 0.050052081072253 0.055014659375369 -0.997230252466374
0.000367656180252 -0.009870795291497 -0.805297556449658 0.024806560626834 0.007918796799354 -0.999660906111226
0.000451219362072 0.011623668597409 -0.795259745891842 0.049502373899021 0.054410449675319 -0.997290839196115
0.000456000197712 -0.006902890747530 -0.803971807885418 -0.018924824872190 0.014414650232945 -0.999716994385020
0.000460723779580 0.002288409672322 -0.812683869878994 0.047405171287638 0.002239070837120 -0.998873233346943
0.000487372566830 0.002048329620323 -0.811358121314754 0.046713986983620 0.006319482797109 -0.998888315857820
0.000588832460435 -0.015529905104759 -0.814388403747302 0.049392214839728 0.011134839489554 -0.998717389686776
0.000653362872020 -0.001790107640502 -0.812683869878994 0.047405171287638 0.002239070837120 -0.998873233346943
0.000846001964461 -0.005868624953326 -0.812683869878994 0.047405171287638 0.002239070837120 -0.998873233346943
0.000869981452343 1.324314572869890 0.005492386908993 0.040020818341987 0.998265153829495 0.043185839681689
0.000913130565839 -0.011579557842087 -0.805297556449658 0.024806560626834 0.007918796799354 -0.999660906111226
0.000999027854484 0.006234865780381 -0.780108333729102 0.000000000000000 0.000000000000000 -1.000000000000000
0.001038641056901 -0.009947142266149 -0.812683869878994 0.047405171287638 0.002239070837120 -0.998873233346943
0.001055873653864 -0.010089146402076 -0.805108163797624 0.030183606563819 0.039627702302884 -0.998758526924799
0.001062187644682 0.011076921340795 -0.813441440487131 -0.002182146102205 0.000894775567931 -0.999997218803668
0.001079032147459 1.325064371112118 -0.006818135473233 0.040054033465831 0.999093660144124 -0.014405993993337
0.001092192424548 -0.012671756761455 -0.795070353239808 -0.000000000000000 -0.000000000000000 -1.000000000000000
0.001220353966145 -0.014894735900861 -0.805108163797624 0.020602153951832 0.015925578338863 -0.999660906111226
0.001246425909288 -0.011285928238001 -0.819502005352227 0.025893096994764 -0.008062709332425 -0.999632202485614
0.001304820987939 -0.422714017558392 -0.743744944538525 -0.021542493649842 -0.168263812250390 -0.985506575551027
0.001358602382469 -0.157248043832757 0.794880960587774 0.014489605812983 0.022924028379493 0.999632202485614
0.001374829548599 0.594597499843026 -0.689199860752659 0.026254550597915 0.205068681663888 -0.978395387547149
0.001458604951427 -0.013288320392677 -0.805297556449658 0.024806560626834 0.007918796799354 -0.999660906111226
0.001479036238088 -0.157409218444005 0.796206709152014 0.021763493418000 0.042173618024407 0.998873233346943
0.001717944136748 -0.005246099381882 -0.803971807885418 -0.018924824872190 0.014414650232945 -0.999716994385020
0.001759684861255 -0.007356677382480 -0.811358121314754 0.046713986983620 0.006319482797109 -0.998888315857820
0.001782675466688 -0.626692012443862 -0.694502855009618 -0.137466005790684 -0.335247093766247 -0.932047468412012
0.001893658311283 0.010311344354246 -0.795259745891842 0.049502373899021 0.054410449675319 -0.997290839196115
0.001925226215477 0.000210100845712 -0.809842980098480 -0.020018496646798 0.012653104444771 -0.999719540041062
0.001936760242370 0.005942870439821 -0.780108333729102 0.000000000000000 0.000000000000000 -1.000000000000000
0.001960649676617 -0.010778295707035 -0.805108163797624 0.030183606563819 0.039627702302884 -0.998758526924799
0.001989576203016 0.000284866622309 0.773100805603835 0.086834806773362 0.045597452536817 0.995178671724221
0.002004079337015 -0.014997082943266 -0.805297556449658 0.024806560626834 0.007918796799354 -0.999660906111226
0.002023874228417 0.133955871730688 0.756434252224820 -0.009719580717689 0.205781068257164 0.978549784986749
0.002069565118940 -1.251294632237759 -0.209089487845819 -0.198891368853079 -0.912521123360753 -0.357417714748694
0.002127292843288 -0.012777396531093 -0.804539985841521 0.021911762144894 0.014069380675346 -0.999660906111226
0.002386861850272 -0.016403790988435 -0.805108163797624 0.020602153951832 0.015925578338863 -0.999660906111226
0.002437186397092 -0.062482721887328 -0.796964279760151 -0.001158570407557 -0.000261184795364 -0.999999294748308
0.002549553722602 -0.016705845493856 -0.805297556449658 0.024806560626834 0.007918796799354 -0.999660906111226
0.002632329835196 -0.006835148320308 -0.819502005352227 0.025893096994764 -0.008062709332425 -0.999632202485614
0.002766551627430 -0.135701620698534 0.819691398004262 -0.006362183410245 0.047029632417002 0.998873233346943
0.002865425699371 -0.011467445011995 -0.805108163797624 0.030183606563819 0.039627702302884 -0.998758526924799
0.002920216976115 -0.154874292789084 -0.790146144286918 -0.012018726034579 -0.019014845556059 -0.999746960922105
0.002979888075783 -0.003589308016235 -0.803971807885418 -0.018924824872190 0.014414650232945 -0.999716994385020
0.003031997155681 -0.016761684385283 -0.811358121314754 0.046713986983620 0.006319482797109 -0.998888315857820
0.003078539632432 -0.319356202497475 0.796206709152014 -0.039433226452652 -0.076414286895165 0.996296079190236
0.003095028108190 -0.018414608044446 -0.805297556449658 0.024806560626834 0.007918796799354 -0.999660906111226
0.003248506808323 -0.016778195442575 -0.795070353239808 -0.000000000000000 -0.000000000000000 -1.000000000000000
0.003260977982659 -0.019653586170067 -0.806623305013898 0.019915944845101 0.010457976283295 -0.999746960922105
0.003294213761981 0.266557453892440 0.728214747071716 0.009955229282458 0.248319722154061 0.968626971026134
0.003336097260494 0.008999020111083 -0.795259745891842 0.049502373899021 0.054410449675319 -0.997290839196115
0.003439841876078 -1.113178135570649 0.401701814964658 0.108358208439195 -0.800990223584877 0.588789572245718
0.003553369734399 -0.017912846076009 -0.805108163797624 0.020602153951832 0.015925578338863 -0.999660906111226
0.003640502493778 -0.020123370595035 -0.805297556449658 0.024806560626834 0.007918796799354 -0.999660906111226
0.003950559041162 0.009995836565306 -0.777835621904691 0.000000000000000 0.000000000000000 -1.000000000000000
0.004005671903740 0.154625601286982 -0.767040240738738 -0.046373647317223 0.088312975399572 -0.995012715099949
0.004072669555141 -0.200406815650248 0.816850508223748 0.016797916633079 -0.015282666378559 0.999742101796833
0.004079572020979 -0.627633840727846 -0.694502855009618 -0.137466005790684 -0.335247093766247 -0.932047468412012
0.004121640315258 -0.132254751047692 0.817229293527816 -0.010436875926027 0.046296169646404 0.998873233346943
0.004185976879365 -0.021832133145625 -0.805297556449658 0.024806560626834 0.007918796799354 -0.999660906111226
0.004304309450107 -0.026166691388086 -0.811358121314754 0.046713986983620 0.006319482797109 -0.998888315857820
0.004343237533164 -0.818718459006832 -0.601511062860798 -0.243120319029120 -0.471122134290535 -0.847901200056180
0.004408578440724 -0.165594145686795 0.771775057039595 -0.026259227115787 -0.001240292315020 0.999654397612622
0.004459777249374 -0.379165618717275 0.772911412951800 -0.092175507349950 -0.101314551382770 0.990575104433221
0.004651378472441 1.270332254785507 -0.231816606089930 0.036485942231045 0.910092452949048 -0.412795958198112
0.004657933224034 -1.251858788028062 -0.209089487845819 -0.198891368853079 -0.912521123360753 -0.357417714748694
0.004658229143593 1.324920879783944 -0.006818135473233 0.040054033465831 0.999093660144124 -0.014405993993337
0.004697213476747 -0.072507809646038 -0.796964279760151 -0.001158570407557 -0.000261184795364 -0.999999294748308
0.004719877618527 -0.019421901163582 -0.805108163797624 0.020602153951832 0.015925578338863 -0.999660906111226
0.004731451264953 -0.023540895696214 -0.805297556449658 0.024806560626834 0.007918796799354 -0.999660906111226
0.004771590587233 1.113922355071250 0.399050317836178 0.145131006906611 0.665866549265531 0.731818781805638
0.004778536209704 0.007686695867919 -0.795259745891842 0.049502373899021 0.054410449675319 -0.997290839196115
0.004959418536262 -0.017188170962524 -0.804539985841521 0.021911762144894 0.014069380675346 -0.999660906111226
0.005404821192097 -0.020884634123694 -0.795070353239808 -0.000000000000000 -0.000000000000000 -1.000000000000000
0.005576621744532 -0.035571698390889 -0.811358121314754 0.046713986983620 0.006319482797109 -0.998888315857820
0.005625823205944 -0.191365414570998 0.771775057039595 -0.026259227115787 -0.001240292315020 0.999654397612622
0.005704720976268 0.307259614006632 -0.746207049014970 -0.054704091483873 0.130747286853750 -0.989905353736057
0.005716861962892 -1.222953958099021 0.210794021714127 0.124202990205904 -0.918115778471574 0.376346960324443
0.005843350900896 0.006408972136087 -0.809842980098480 -0.020018496646798 0.012653104444771 -0.999719540041062
0.005886385502654 -0.020930956251156 -0.805108163797624 0.020602153951832 0.015925578338863 -0.999660906111226
0.006205207337399 0.293782246112838 -0.748100975535313 -0.031101110729059 0.137959127684322 -0.989949493661166
0.006220975158915 0.006374371624756 -0.795259745891842 0.049502373899021 0.054410449675319 -0.997290839196115
0.006259715797087 1.324098496431386 0.005492386908993 0.040020818341987 0.998265153829495 0.043185839681689
0.006376468575269 -0.628575669011831 -0.694502855009618 -0.137466005790684 -0.335247093766247 -0.932047468412012
0.006750756379063 -1.112730234019200 0.401701814964658 0.108358208439195 -0.800990223584877 0.588789572245718
0.006843067971163 -0.217136683455201 0.771775057039595 -0.026259227115787 -0.001240292315020 0.999654397612622
0.006957240556402 -0.082532897404748 -0.796964279760151 -0.001158570407557 -0.000261184795364 -0.999999294748308
0.007246301329128 -1.252422943818365 -0.209089487845819 -0.198891368853079 -0.912521123360753 -0.357417714748694
0.007561135575872 -0.024991072804814 -0.795070353239808 -0.000000000000000 -0.000000000000000 -1.000000000000000
0.007569813184641 -0.157813166146584 -0.790146144286918 -0.012018726034579 -0.019014845556059 -0.999746960922105
0.007663414108126 0.005062047381593 -0.795259745891842 0.049502373899021 0.054410449675319 -0.997290839196115
0.007791544229236 -0.021598945393956 -0.804539985841521 0.021911762144894 0.014069380675346 -0.999660906111226
0.008060312736382 -0.242907952339404 0.771775057039595 -0.026259227115787 -0.001240292315020 0.999654397612622
0.008074106681084 -0.028819604823535 -0.806623305013898 0.019915944845101 0.010457976283295 -0.999746960922105
0.008237426139728 1.324777388455771 -0.006818135473233 0.040054033465831 0.999093660144124 -0.014405993993337
0.008593070605618 -0.134983235015149 -0.773479590907903 0.018816779481945 -0.044973653667477 -0.998810942714248
0.008673365129560 -0.629517497295816 -0.694502855009618 -0.137466005790684 -0.335247093766247 -0.932047468412012
0.008803597441027 -0.280094052513519 -0.761169068525676 0.034799857266702 -0.109014638330160 -0.993430812167592
0.009064570618070 -0.139097293773172 -0.773290198255869 -0.014846680446976 -0.047679572835128 -0.998752338877845
0.009105853057336 0.003749723138430 -0.795259745891842 0.049502373899021 0.054410449675319 -0.997290839196115
0.009217267636057 -0.092557985163459 -0.796964279760151 -0.001158570407557 -0.000261184795364 -0.999999294748308
0.009277557501602 -0.268679221223608 0.771775057039595 -0.026259227115787 -0.001240292315020 0.999654397612622
0.009449285731014 0.134306593432508 0.756434252224820 -0.009719580717689 0.205781068257164 0.978549784986749
0.009721731557712 -0.132881556316988 0.817797471483919 -0.007234405270006 0.022662623814787 0.999716994385020
0.009761475586316 0.012607843426462 -0.809842980098480 -0.020018496646798 0.012653104444771 -0.999719540041062
0.009834669434221 -1.252987099608668 -0.209089487845819 -0.198891368853079 -0.912521123360753 -0.357417714748694
0.010061670882048 -1.112282332467752 0.401701814964658 0.108358208439195 -0.800990223584877 0.588789572245718
0.010409088572061 0.294729957061476 -0.748100975535313 -0.031101110729059 0.137959127684322 -0.989949493661166
0.010494802266821 -0.294450490107811 0.771775057039595 -0.026259227115787 -0.001240292315020 0.999654397612622
0.010548292006547 0.002437398895267 -0.795259745891842 0.049502373899021 0.054410449675319 -0.997290839196115
0.010603534350359 -0.135570535182346 0.818176256787987 0.002839685862146 0.070832120917145 0.997484208812642
0.010623669922210 -0.026009719825387 -0.804539985841521 0.021911762144894 0.014069380675346 -0.999660906111226
0.010656235900156 0.954018172926111 0.512307123752663 0.193295748432477 0.471402638977024 0.860474465398844
0.010862455474246 0.428411928541195 -0.723290538118825 0.027659935379387 0.216045841729616 -0.975991353571408
0.010970261683850 -0.630459325579800 -0.694502855009618 -0.137466005790684 -0.335247093766247 -0.932047468412012
0.011390104539276 -0.162523777731127 0.796206709152014 0.021763493418000 0.042173618024407 0.998873233346943
0.011477294715713 -0.102583072922169 -0.796964279760151 -0.001158570407557 -0.000261184795364 -0.999999294748308
0.011528244155509 -0.217413313218902 0.811926299270857 0.037753715031309 -0.028756228966236 0.998873233346943
0.011649450141831 1.323882419992881 0.005492386908993 0.040020818341987 0.998265153829495 0.043185839681689
0.011712047032041 -0.320221758992014 0.771775057039595 -0.026259227115787 -0.001240292315020 0.999654397612622
0.011809753825159 -0.133681680706910 0.815524759659508 -0.002239070837120 0.047405171287638 0.998873233346943
0.011816623135863 1.324633897127597 -0.006818135473233 0.040054033465831 0.999093660144124 -0.014405993993337
0.011990730955757 0.001125074652103 -0.795259745891842 0.049502373899021 0.054410449675319 -0.997290839196115
0.012219409393167 -0.160752039504085 -0.790146144286918 -0.012018726034579 -0.019014845556059 -0.999746960922105
0.012423037539315 -1.253551255398971 -0.209089487845819 -0.198891368853079 -0.912521123360753 -0.357417714748694
0.012632488411704 -0.019983266216933 0.773100805603835 0.086834806773362 0.045597452536817 0.995178671724221
0.012754651419207 -0.164451152101261 0.794880960587774 0.014489605812983 0.022924028379493 0.999632202485614
0.012887235379509 -0.037985623477002 -0.806623305013898 0.019915944845101 0.010457976283295 -0.999746960922105
0.012929291797260 -0.345993027876217 0.771775057039595 -0.026259227115787 -0.001240292315020 0.999654397612622
0.013063862530072 -1.277001982819702 -0.000568177956103 0.133232222816021 -0.984860394789557 0.110901657239465
0.013267158238141 -0.631401153863785 -0.694502855009618 -0.137466005790684 -0.335247093766247 -0.932047468412012
0.013372585385033 -1.111834430916303 0.401701814964658 0.108358208439195 -0.800990223584877 0.588789572245718
0.013433169904968 -0.000187249591060 -0.795259745891842 0.049502373899021 0.054410449675319 -0.997290839196115
0.013455795615184 -0.030420494256819 -0.804539985841521 0.021911762144894 0.014069380675346 -0.999660906111226
0.013737321795368 -0.112608160680880 -0.796964279760151 -0.001158570407557 -0.000261184795364 -0.999999294748308
0.014109063064553 -0.154950138031059 0.808517231534240 0.007361760689788 0.023642025990733 0.999693382536165
0.014146536562479 -0.371764296760420 0.771775057039595 -0.026259227115787 -0.001240292315020 0.999654397612622
0.014209869702644 -1.221805021350678 0.210794021714127 0.124202990205904 -0.918115778471574 0.376346960324443
0.014612969806722 0.295677668010115 -0.748100975535313 -0.031101110729059 0.137959127684322 -0.989949493661166
0.015011405644409 -1.254115411189274 -0.209089487845819 -0.198891368853079 -0.912521123360753 -0.357417714748694
0.015363781327699 -0.397535565644624 0.771775057039595 -0.026259227115787 -0.001240292315020 0.999654397612622
0.015395820131998 1.324490405799423 -0.006818135473233 0.040054033465831 0.999093660144124 -0.014405993993337
0.015458903112283 0.266069767008041 0.728214747071716 0.009955229282458 0.248319722154061 0.968626971026134
0.015461861722171 -0.170805149298093 0.776320480688417 0.000000000000000 0.000000000000000 1.000000000000000
0.015564054792431 -0.632342982147769 -0.694502855009618 -0.137466005790684 -0.335247093766247 -0.932047468412012
0.015693238982699 -0.325865957627346 0.796206709152014 -0.039433226452652 -0.076414286895165 0.996296079190236
0.015997348875023 -0.122633248439590 -0.796964279760151 -0.001158570407557 -0.000261184795364 -0.999999294748308
0.016069933836209 0.560181459133616 0.658139465819041 0.061711973042974 0.283136866575551 0.957092026489053
0.016168601168279 1.111438284316867 0.399050317836178 0.145131006906611 0.665866549265531 0.731818781805638
0.016287921308158 -0.034831268688250 -0.804539985841521 0.021911762144894 0.014069380675346 -0.999660906111226
0.016683499888017 -1.111386529364855 0.401701814964658 0.108358208439195 -0.800990223584877 0.588789572245718
0.016864790345770 -0.978916779086237 0.541094806861870 0.206270627648646 -0.646166956919336 0.734792958563865
0.016869005601693 -0.163690912861586 -0.790146144286918 -0.012018726034579 -0.019014845556059 -0.999746960922105
0.016874697233611 0.134657315134328 0.756434252224820 -0.009719580717689 0.205781068257164 0.978549784986749
0.017012822613520 0.008323499974944 -0.777835621904691 0.000000000000000 0.000000000000000 -1.000000000000000
0.017039184486575 1.323666343554377 0.005492386908993 0.040020818341987 0.998265153829495 0.043185839681689
0.017246161317671 -0.131362819805617 -0.773479590907903 0.018816779481945 -0.044973653667477 -0.998810942714248
0.017341921563442 1.151645819485077 -0.399618495792281 0.223518305028546 0.717820885460196 -0.659372992860874
0.017597250100903 -0.129216848162107 0.817229293527816 -0.010436875926027 0.046296169646404 0.998873233346943
0.017599773749503 -1.254679566979577 -0.209089487845819 -0.198891368853079 -0.912521123360753 -0.357417714748694
0.017700364077934 -0.047151642130469 -0.806623305013898 0.019915944845101 0.010457976283295 -0.999746960922105
0.017811243405232 1.264600804880238 0.221778795532114 0.188079087707005 0.862913968488204 0.469047694542079
0.017860951346722 -0.633284810431754 -0.694502855009618 -0.137466005790684 -0.335247093766247 -0.932047468412012
0.018375407307829 -0.192342248920687 0.776320480688417 0.000000000000000 0.000000000000000 1.000000000000000
0.018617356102706 0.592389972188498 -0.689199860752659 0.026254550597915 0.205068681663888 -0.978395387547149
0.018816851041384 0.296625378958753 -0.748100975535313 -0.031101110729059 0.137959127684322 -0.989949493661166
0.018975017128132 1.324346914471250 -0.006818135473233 0.040054033465831 0.999093660144124 -0.014405993993337
0.019376439217134 -0.392736728356318 0.772911412951800 -0.092175507349950 -0.101314551382770 0.990575104433221
0.019646209099556 0.733857148866040 0.603594382033175 0.071423942861967 0.327695751460194 0.942079675431430
0.019804275444347 -0.276582395453363 -0.761169068525676 0.034799857266702 -0.109014638330160 -0.993430812167592
0.019952838061481 -0.826773718533274 -0.601511062860798 -0.243120319029120 -0.471122134290535 -0.847901200056180
0.019994414391002 -1.110938627813406 0.401701814964658 0.108358208439195 -0.800990223584877 0.588789572245718
0.020033523900220 -0.220691362190635 0.799236991584562 -0.001916767964817 0.001211532798049 0.999997429091119
0.020157847901012 -0.634226638715739 -0.694502855009618 -0.137466005790684 -0.335247093766247 -0.932047468412012
0.020188141854597 -1.255243722769880 -0.209089487845819 -0.198891368853079 -0.912521123360753 -0.357417714748694
0.020396246560436 -0.182464783880629 0.816850508223748 0.016797916633079 -0.015282666378559 0.999742101796833
0.020873030687033 1.263933463546405 0.221778795532114 0.188079087707005 0.862913968488204 0.469047694542079
0.021288952893487 -0.213879348543281 0.776320480688417 0.000000000000000 0.000000000000000 1.000000000000000
0.021301172840465 -0.167638337018249 0.796206709152014 0.021763493418000 0.042173618024407 0.998873233346943
0.022428918831319 1.323450267115872 0.005492386908993 0.040020818341987 0.998265153829495 0.043185839681689
0.022513492776359 -0.056317660783937 -0.806623305013898 0.019915944845101 0.010457976283295 -0.999746960922105
0.022554214124267 1.324203423143076 -0.006818135473233 0.040054033465831 0.999093660144124 -0.014405993993337
0.022702877442396 -1.220656084602336 0.210794021714127 0.124202990205904 -0.918115778471574 0.376346960324443
0.022776509959691 -1.255807878560183 -0.209089487845819 -0.198891368853079 -0.912521123360753 -0.357417714748694
0.022895764600416 -0.997086425279447 -0.499239030762300 -0.288253136899701 -0.558581173364878 -0.777751375331345
0.023020732276046 0.297573089907391 -0.748100975535313 -0.031101110729059 0.137959127684322 -0.989949493661166
0.023250535737707 -0.224857916651028 0.784653757377924 0.000000000000000 0.000000000000000 1.000000000000000
0.023275400620391 -0.040251399056174 0.773100805603835 0.086834806773362 0.045597452536817 0.995178671724221
0.023856810754613 0.948605358518096 0.512307123752663 0.193295748432477 0.471402638977024 0.860474465398844
0.023894780753247 1.149605360634041 -0.399618495792281 0.223518305028546 0.717820885460196 -0.659372992860874
0.023934817968834 1.263266122212572 0.221778795532114 0.188079087707005 0.862913968488204 0.469047694542079
0.024122130509448 -0.214222771177722 0.799236991584562 -0.001916767964817 0.001211532798049 0.999997429091119
0.024150700455944 -0.171654260369765 0.794880960587774 0.014489605812983 0.022924028379493 0.999632202485614
0.024202498479145 -0.235416448165875 0.776320480688417 0.000000000000000 0.000000000000000 1.000000000000000
0.024300108736208 0.135008036836149 0.756434252224820 -0.009719580717689 0.205781068257164 0.978549784986749
0.024780388260919 -0.184823314455015 0.798479420976425 0.000000000000000 0.000000000000000 1.000000000000000
0.025364878064785 -1.256372034350486 -0.209089487845819 -0.198891368853079 -0.912521123360753 -0.357417714748694
0.025899252029725 -0.127742404596084 -0.773479590907903 0.018816779481945 -0.044973653667477 -0.998810942714248
0.026267387039328 -0.228126763927862 0.784653757377924 0.000000000000000 0.000000000000000 1.000000000000000
0.026438011771130 0.426417819896378 -0.723290538118825 0.027659935379387 0.216045841729616 -0.975991353571408
0.026502798187772 0.984570403287644 -0.536549383213048 0.213960072384989 0.521798040442842 -0.825801363776435
0.026627653561293 -0.792037922928039 0.666851527812617 -0.018919896449705 -0.471931212860480 0.881432338779540
0.026996605250635 1.262598780878739 0.221778795532114 0.188079087707005 0.862913968488204 0.469047694542079
0.027116044064803 -0.256953547788470 0.776320480688417 0.000000000000000 0.000000000000000 1.000000000000000
0.027224613510707 0.298520800856030 -0.748100975535313 -0.031101110729059 0.137959127684322 -0.989949493661166
0.027565611749326 1.108954213562484 0.399050317836178 0.145131006906611 0.665866549265531 0.731818781805638
0.027623592462585 0.265582080123642 0.728214747071716 0.009955229282458 0.248319722154061 0.968626971026134
0.027768806505541 -0.186712205955762 0.798479420976425 0.000000000000000 0.000000000000000 1.000000000000000
0.027818653176063 1.323234190677368 0.005492386908993 0.040020818341987 0.998265153829495 0.043185839681689
0.028210737118675 -0.207754180164809 0.799236991584562 -0.001916767964817 0.001211532798049 0.999997429091119
0.028307938332967 -0.332375712757217 0.796206709152014 -0.039433226452652 -0.076414286895165 0.996296079190236
0.028342593244336 -0.792106675492685 0.666851527812617 -0.018919896449705 -0.471931212860480 0.881432338779540
0.028362070568823 -0.132239050875712 0.819691398004262 -0.006362183410245 0.047029632417002 0.998873233346943
0.029284238340949 -0.231395611204696 0.784653757377924 0.000000000000000 0.000000000000000 1.000000000000000
0.029315701376135 -1.274803428968045 -0.000568177956103 0.133232222816021 -0.984860394789557 0.110901657239465
0.029437220253673 -1.000462112112182 -0.499239030762300 -0.288253136899701 -0.558581173364878 -0.777751375331345
0.030029589650460 -0.278490647411064 0.776320480688417 0.000000000000000 0.000000000000000 1.000000000000000
0.030057532927378 -0.792175428057331 0.666851527812617 -0.018919896449705 -0.471931212860480 0.881432338779540
0.030058392532435 1.261931439544906 0.221778795532114 0.188079087707005 0.862913968488204 0.469047694542079
0.030075086185877 0.006651163384583 -0.777835621904691 0.000000000000000 0.000000000000000 -1.000000000000000
0.030093290373988 -0.193039482237847 0.811926299270857 0.037753715031309 -0.028756228966236 0.998873233346943
0.030447639943052 1.147564901783005 -0.399618495792281 0.223518305028546 0.717820885460196 -0.659372992860874
0.030742494785339 0.982831941812902 -0.536549383213048 0.213960072384989 0.521798040442842 -0.825801363776435
0.030757224750164 -0.188601097456509 0.798479420976425 0.000000000000000 0.000000000000000 1.000000000000000
0.030804953447666 -0.273070738393207 -0.761169068525676 0.034799857266702 -0.109014638330160 -0.993430812167592
0.031195885182148 -1.219507147853993 0.210794021714127 0.124202990205904 -0.918115778471574 0.376346960324443
0.031212241141653 -0.172752896305371 0.796206709152014 0.021763493418000 0.042173618024407 0.998873233346943
0.031428494745369 0.299468511804668 -0.748100975535313 -0.031101110729059 0.137959127684322 -0.989949493661166
0.031772472610421 -0.792244180621977 0.666851527812617 -0.018919896449705 -0.471931212860480 0.881432338779540
0.032299343727902 -0.201285589151896 0.799236991584562 -0.001916767964817 0.001211532798049 0.999997429091119
0.032301089642569 -0.234664458481530 0.784653757377924 0.000000000000000 0.000000000000000 1.000000000000000
0.032943135236118 -0.300027747033658 0.776320480688417 0.000000000000000 0.000000000000000 1.000000000000000
0.033120179814236 1.261264098211073 0.221778795532114 0.188079087707005 0.862913968488204 0.469047694542079
0.033208387520807 1.323018114238863 0.005492386908993 0.040020818341987 0.998265153829495 0.043185839681689
0.033487412293464 -0.792312933186623 0.666851527812617 -0.018919896449705 -0.471931212860480 0.881432338779540
0.033745642994786 -0.190489988957255 0.798479420976425 0.000000000000000 0.000000000000000 1.000000000000000
0.033918312829078 -0.060519531895416 0.773100805603835 0.086834806773362 0.045597452536817 0.995178671724221
0.034293101184894 -0.406307837995360 0.772911412951800 -0.092175507349950 -0.101314551382770 0.990575104433221
0.034552342741778 -0.124121989386552 -0.773479590907903 0.018816779481945 -0.044973653667477 -0.998810942714248
0.034982191382905 0.981093480338160 -0.536549383213048 0.213960072384989 0.521798040442842 -0.825801363776435
0.035202351976507 -0.792381685751269 0.666851527812617 -0.018919896449705 -0.471931212860480 0.881432338779540
0.035317940944190 -0.237933305758364 0.784653757377924 0.000000000000000 0.000000000000000 1.000000000000000
0.035546749492682 -0.178857368638269 0.794880960587774 0.014489605812983 0.022924028379493 0.999632202485614
0.035562438589798 -0.834828978059716 -0.601511062860798 -0.243120319029120 -0.471122134290535 -0.847901200056180
0.035632375980030 0.300416222753306 -0.748100975535313 -0.031101110729059 0.137959127684322 -0.989949493661166
0.035856680821776 -0.321564846656252 0.776320480688417 0.000000000000000 0.000000000000000 1.000000000000000
0.035859882656813 0.590182444533970 -0.689199860752659 0.026254550597915 0.205068681663888 -0.978395387547149
0.035929461182538 -0.436048238739320 -0.740714662105977 0.050714122190543 -0.158867941510886 -0.985996478173496
0.035947056405721 -0.132541612464841 0.815524759659508 -0.002239070837120 0.047405171287638 0.998873233346943
0.035974286838788 0.163478597673996 0.750563080011758 0.151389817780809 0.139719151781997 0.978549784986749
0.035978675906931 -1.003837798944918 -0.499239030762300 -0.288253136899701 -0.558581173364878 -0.777751375331345
0.036181967096037 1.260596756877240 0.221778795532114 0.188079087707005 0.862913968488204 0.469047694542079
0.036387950337130 -0.194816998138983 0.799236991584562 -0.001916767964817 0.001211532798049 0.999997429091119
0.036636519049686 -0.972605210774388 0.541094806861870 0.206270627648646 -0.646166956919336 0.734792958563865
0.036719823565731 -0.164522752111010 0.816850508223748 0.016797916633079 -0.015282666378559 0.999742101796833
0.036734061239408 -0.192378880458002 0.798479420976425 0.000000000000000 0.000000000000000 1.000000000000000
0.036826852639335 -0.587928371474212 -0.709464874520324 0.011522771954951 -0.243957881625288 -0.969717370020449
0.036917291659550 -0.792450438315915 0.666851527812617 -0.018919896449705 -0.471931212860480 0.881432338779540
0.037000499132857 1.145524442931969 -0.399618495792281 0.223518305028546 0.717820885460196 -0.659372992860874
0.037057385609069 0.943192544110081 0.512307123752663 0.193295748432477 0.471402638977024 0.860474465398844
0.038334792245810 -0.241202153035198 0.784653757377924 0.000000000000000 0.000000000000000 1.000000000000000
0.038355749511939 -0.162500180621146 0.808517231534240 0.007361760689788 0.023642025990733 0.999693382536165
0.038572218309986 0.555276903998686 0.658139465819041 0.061711973042974 0.283136866575551 0.957092026489053
0.038632231342593 -0.792519190880561 0.666851527812617 -0.018919896449705 -0.471931212860480 0.881432338779540
0.038770226407434 -0.343101946278846 0.776320480688417 0.000000000000000 0.000000000000000 1.000000000000000
0.038962622330372 1.106470142808101 0.399050317836178 0.145131006906611 0.665866549265531 0.731818781805638
0.038987744109678 -0.587826306890496 -0.709464874520324 0.011522771954951 -0.243957881625288 -0.969717370020449
0.039221887980472 0.979355018863418 -0.536549383213048 0.213960072384989 0.521798040442842 -0.825801363776435
0.039243754377838 1.259929415543407 0.221778795532114 0.188079087707005 0.862913968488204 0.469047694542079
0.039688892921900 -1.218358211105651 0.210794021714127 0.124202990205904 -0.918115778471574 0.376346960324443
0.039722479484030 -0.194267771958749 0.798479420976425 0.000000000000000 0.000000000000000 1.000000000000000
0.039788281812887 0.265094393239243 0.728214747071716 0.009955229282458 0.248319722154061 0.968626971026134
0.039836257214692 0.301363933701945 -0.748100975535313 -0.031101110729059 0.137959127684322 -0.989949493661166
0.040341743681161 0.729346389502002 0.603594382033175 0.071423942861967 0.327695751460194 0.942079675431430
0.040347171025635 -0.792587943445207 0.666851527812617 -0.018919896449705 -0.471931212860480 0.881432338779540
0.040476556946357 -0.188348407126070 0.799236991584562 -0.001916767964817 0.001211532798049 0.999997429091119
0.040966532654860 1.272828088546738 -0.215528838014984 0.273248369439353 0.877527173787675 -0.394057594601284
0.041123309442841 -0.177867455592493 0.796206709152014 0.021763493418000 0.042173618024407 0.998873233346943
0.041148635580021 -0.587724242306781 -0.709464874520324 0.011522771954951 -0.243957881625288 -0.969717370020449
0.041351643547431 -0.244471000312032 0.784653757377924 0.000000000000000 0.000000000000000 1.000000000000000
0.041683771993092 -0.364639045901440 0.776320480688417 0.000000000000000 0.000000000000000 1.000000000000000
0.041769726937185 -1.114108626626535 0.391095826450739 0.247068224304249 -0.773970218009314 0.583032927178012
0.041805631450986 -0.269559081333051 -0.761169068525676 0.034799857266702 -0.109014638330160 -0.993430812167592
0.042005064056379 -0.136829434094327 0.818176256787987 0.002839685862146 0.070832120917145 0.997484208812642
0.042013568068014 0.424423711251561 -0.723290538118825 0.027659935379387 0.216045841729616 -0.975991353571408
0.042062110708678 -0.792656696009853 0.666851527812617 -0.018919896449705 -0.471931212860480 0.881432338779540
0.042280786420306 -0.134643645479802 0.822911073088844 -0.000660458154750 0.000854402916703 0.999999416895171
0.042305541659639 1.259262074209574 0.221778795532114 0.188079087707005 0.862913968488204 0.469047694542079
0.042520131560188 -1.007213485777653 -0.499239030762300 -0.288253136899701 -0.558581173364878 -0.777751375331345
0.042710897728652 -0.196156663459496 0.798479420976425 0.000000000000000 0.000000000000000 1.000000000000000
0.043137349758234 0.004978826794221 -0.777835621904691 0.000000000000000 0.000000000000000 -1.000000000000000
0.043205433453831 -0.120501574177019 -0.773479590907903 0.018816779481945 -0.044973653667477 -0.998810942714248
0.043309527050364 -0.587622177723066 -0.709464874520324 0.011522771954951 -0.243957881625288 -0.969717370020449
0.043461584578039 0.977616557388676 -0.536549383213048 0.213960072384989 0.521798040442842 -0.825801363776435
0.043553358322662 1.143483984080932 -0.399618495792281 0.223518305028546 0.717820885460196 -0.659372992860874
0.044040138449353 0.302311644650583 -0.748100975535313 -0.031101110729059 0.137959127684322 -0.989949493661166
0.044127664943368 -0.203997817536321 0.794123389979637 0.020180986622461 -0.010414301406924 0.999742101796833
0.044368494849051 -0.247739847588866 0.784653757377924 0.000000000000000 0.000000000000000 1.000000000000000
0.044561225037766 -0.080787664734657 0.773100805603835 0.086834806773362 0.045597452536817 0.995178671724221
0.044565163555584 -0.181879816113158 0.799236991584562 -0.001916767964817 0.001211532798049 0.999997429091119
0.044672049412753 -0.433257413330794 -0.740714662105977 0.050714122190543 -0.158867941510886 -0.985996478173496
0.045367328941440 1.258594732875741 0.221778795532114 0.188079087707005 0.862913968488204 0.469047694542079
0.045367618301439 -0.201595017660080 0.794123389979637 0.020180986622461 -0.010414301406924 0.999742101796833
0.045470418520707 -0.587520113139350 -0.709464874520324 0.011522771954951 -0.243957881625288 -0.969717370020449
0.045567540222197 -1.272604875116389 -0.000568177956103 0.133232222816021 -0.984860394789557 0.110901657239465
0.045699315973274 -0.198045554960242 0.798479420976425 0.000000000000000 0.000000000000000 1.000000000000000
0.046607571659509 -0.199192217783839 0.794123389979637 0.020180986622461 -0.010414301406924 0.999742101796833
0.046942798529419 -0.186060476906773 0.794880960587774 0.014489605812983 0.022924028379493 0.999632202485614
0.047385346150672 -0.251008694865700 0.784653757377924 0.000000000000000 0.000000000000000 1.000000000000000
0.047631309991050 -0.587418048555635 -0.709464874520324 0.011522771954951 -0.243957881625288 -0.969717370020449
0.047701281175606 0.975878095913934 -0.536549383213048 0.213960072384989 0.521798040442842 -0.825801363776435
0.047847525017580 -0.196789417907597 0.794123389979637 0.020180986622461 -0.010414301406924 0.999742101796833
0.048181900661652 -1.217209274357308 0.210794021714127 0.124202990205904 -0.918115778471574 0.376346960324443
0.048272986552866 0.791417074649267 -0.625185144365080 0.152109997785682 0.370960328680008 -0.916106425651114
0.048653770164812 -0.175411225100245 0.799236991584562 -0.001916767964817 0.001211532798049 0.999997429091119
0.048658336592468 -0.168665651256791 0.811926299270857 0.037753715031309 -0.028756228966236 0.998873233346943
0.048687734217897 -0.199934446460989 0.798479420976425 0.000000000000000 0.000000000000000 1.000000000000000
0.048870485402265 0.149505186543959 0.750563080011758 0.151389817780809 0.139719151781997 0.978549784986749
0.049061587213446 -1.010589172610389 -0.499239030762300 -0.288253136899701 -0.558581173364878 -0.777751375331345
0.049087478375650 -0.194386618031356 0.794123389979637 0.020180986622461 -0.010414301406924 0.999742101796833
0.049209763152654 -0.419878947634402 0.772911412951800 -0.092175507349950 -0.101314551382770 0.990575104433221
0.049571505721536 -0.244525381527414 0.792229463459294 0.024093032387330 -0.009879199525533 0.999660906111226
0.049792201461393 -0.587315983971920 -0.709464874520324 0.011522771954951 -0.243957881625288 -0.969717370020449
0.050068373617069 1.269993916254289 -0.215528838014984 0.273248369439353 0.877527173787675 -0.394057594601284
0.050106217512467 1.141443525229896 -0.399618495792281 0.223518305028546 0.717820885460196 -0.659372992860874
0.050257960463526 0.937779729702066 0.512307123752663 0.193295748432477 0.471402638977024 0.860474465398844
0.050327431733721 -0.191983818155115 0.794123389979637 0.020180986622461 -0.010414301406924 0.999742101796833
0.050359632911419 1.103986072053718 0.399050317836178 0.145131006906611 0.665866549265531 0.731818781805638
0.050402197452293 -0.254277542142534 0.784653757377924 0.000000000000000 0.000000000000000 1.000000000000000
0.050730669567288 -1.256251689548321 -0.218180335143463 -0.037766056159579 -0.942023162532950 -0.333415785849395
0.051034377744030 -0.182982014879614 0.796206709152014 0.021763493418000 0.042173618024407 0.998873233346943
0.051172039118115 -0.842884237586158 -0.601511062860798 -0.243120319029120 -0.471122134290535 -0.847901200056180
0.051300314654665 -0.248228003946017 0.771206879083492 0.024365131812700 0.005492805551575 0.999688036058711
0.051490491812401 -1.256282151102476 -0.218180335143463 -0.037766056159579 -0.942023162532950 -0.333415785849395
0.051567385091791 -0.189581018278873 0.794123389979637 0.020180986622461 -0.010414301406924 0.999742101796833
0.051676152462519 -0.201823337961736 0.798479420976425 0.000000000000000 0.000000000000000 1.000000000000000
0.051858524165885 -0.116881158967487 -0.773479590907903 0.018816779481945 -0.044973653667477 -0.998810942714248
0.051940977773173 0.974139634439192 -0.536549383213048 0.213960072384989 0.521798040442842 -0.825801363776435
0.051952971163189 0.264606706354844 0.728214747071716 0.009955229282458 0.248319722154061 0.968626971026134
0.051953092931736 -0.587213919388204 -0.709464874520324 0.011522771954951 -0.243957881625288 -0.969717370020449
0.052250314057513 -1.256312612656630 -0.218180335143463 -0.037766056159579 -0.942023162532950 -0.333415785849395
0.052411540073823 -1.110711527082047 0.391095826450739 0.247068224304249 -0.773970218009314 0.583032927178012
0.052742376774039 -0.168942634087332 0.799236991584562 -0.001916767964817 0.001211532798049 0.999997429091119
0.052761766501161 -0.236745089603064 0.792229463459294 0.024093032387330 -0.009879199525533 0.999660906111226
0.052806309454305 -0.266047424272895 -0.761169068525676 0.034799857266702 -0.109014638330160 -0.993430812167592
0.052807338449862 -0.187178218402632 0.794123389979637 0.020180986622461 -0.010414301406924 0.999742101796833
0.053010136302625 -1.256343074210785 -0.218180335143463 -0.037766056159579 -0.942023162532950 -0.333415785849395
0.053043400571026 -0.146580720341391 0.816850508223748 0.016797916633079 -0.015282666378559 0.999742101796833
0.053102409210920 0.587974916879441 -0.689199860752659 0.026254550597915 0.205068681663888 -0.978395387547149
0.053414637642969 -0.430466587922269 -0.740714662105977 0.050714122190543 -0.158867941510886 -0.985996478173496
0.053769958547737 -1.256373535764939 -0.218180335143463 -0.037766056159579 -0.942023162532950 -0.333415785849395
0.053864895073306 0.157752391707870 -0.768555381955012 -0.027066229496139 0.120061095036781 -0.992397477162972
0.053957589510216 -0.128776481052889 0.819691398004262 -0.006362183410245 0.047029632417002 0.998873233346943
0.054047291807932 -0.184775418526391 0.794123389979637 0.020180986622461 -0.010414301406924 0.999742101796833
0.054102820805506 0.789026587023769 -0.625185144365080 0.152109997785682 0.370960328680008 -0.916106425651114
0.054113984402079 -0.587111854804489 -0.709464874520324 0.011522771954951 -0.243957881625288 -0.969717370020449
0.054529780792849 -1.256403997319093 -0.218180335143463 -0.037766056159579 -0.942023162532950 -0.333415785849395
0.054828401370597 -1.217296548161563 0.207006168673442 0.278951468839256 -0.873848224552217 0.398215216283055
0.055193097251419 0.761141424168979 0.590147503738743 0.194114108633413 0.376157178143243 0.905994199849408
0.055204137246453 -0.101055797573899 0.773100805603835 0.086834806773362 0.045597452536817 0.995178671724221
0.055287245166003 -0.182372618650149 0.794123389979637 0.020180986622461 -0.010414301406924 0.999742101796833
0.055289603037961 -1.256434458873248 -0.218180335143463 -0.037766056159579 -0.942023162532950 -0.333415785849395
0.055603042866704 -1.013964859443125 -0.499239030762300 -0.288253136899701 -0.558581173364878 -0.777751375331345
0.055952027280787 -0.228964797678714 0.792229463459294 0.024093032387330 -0.009879199525533 0.999660906111226
0.055960529037651 -0.232449603017899 0.786547683898267 -0.031937255908314 -0.035103780253283 0.998873233346943
0.056049425283073 -1.256464920427402 -0.218180335143463 -0.037766056159579 -0.942023162532950 -0.333415785849395
0.056180674370740 0.972401172964450 -0.536549383213048 0.213960072384989 0.521798040442842 -0.825801363776435
0.056199613330592 0.003306490203859 -0.777835621904691 0.000000000000000 0.000000000000000 -1.000000000000000
0.056274875872422 -0.587009790220774 -0.709464874520324 0.011522771954951 -0.243957881625288 -0.969717370020449
0.056408247753602 -0.966293642462540 0.541094806861870 0.206270627648646 -0.646166956919336 0.734792958563865
0.056659076702272 1.139403066378860 -0.399618495792281 0.223518305028546 0.717820885460196 -0.659372992860874
0.056809247528186 -1.256495381981557 -0.218180335143463 -0.037766056159579 -0.942023162532950 -0.333415785849395
0.056830983383267 -0.162474043074419 0.799236991584562 -0.001916767964817 0.001211532798049 0.999997429091119
0.057055930160087 -0.233446193861309 0.786547683898267 -0.031937255908314 -0.035103780253283 0.998873233346943
0.057168644533009 -0.274258896476929 0.771206879083492 0.024365131812700 0.005492805551575 0.999688036058711
0.057569069773298 -1.256525843535711 -0.218180335143463 -0.037766056159579 -0.942023162532950 -0.333415785849395
0.057589124364898 0.422429602606744 -0.723290538118825 0.027659935379387 0.216045841729616 -0.975991353571408
0.058151331282524 -0.234442784704719 0.786547683898267 -0.031937255908314 -0.035103780253283 0.998873233346943
0.058338847566157 -0.193263585175277 0.794880960587774 0.014489605812983 0.022924028379493 0.999632202485614
0.058654386371042 0.158832120912360 -0.768555381955012 -0.027066229496139 0.120061095036781 -0.992397477162972
0.059142288060412 -0.221184505754365 0.792229463459294 0.024093032387330 -0.009879199525533 0.999660906111226
0.059170214579278 1.267159743961840 -0.215528838014984 0.273248369439353 0.877527173787675 -0.394057594601284
0.059246732404960 -0.235439375548129 0.786547683898267 -0.031937255908314 -0.035103780253283 0.998873233346943
0.059867372133236 -0.258757115559424 0.796396101804048 0.045312096974713 -0.014109485135117 0.998873233346943
0.059932655058147 0.786636099398272 -0.625185144365080 0.152109997785682 0.370960328680008 -0.916106425651114
0.060084358986282 -0.131401544222772 0.815524759659508 -0.002239070837120 0.047405171287638 0.998873233346943
0.060342133527396 -0.236435966391539 0.786547683898267 -0.031937255908314 -0.035103780253283 0.998873233346943
0.060420370968307 0.970662711489708 -0.536549383213048 0.213960072384989 0.521798040442842 -0.825801363776435
0.060511614877938 -0.113260743757954 -0.773479590907903 0.018816779481945 -0.044973653667477 -0.998810942714248
0.060945446045218 -0.188096574166736 0.796206709152014 0.021763493418000 0.042173618024407 0.998873233346943
0.061037278262765 0.724835630137965 0.603594382033175 0.071423942861967 0.327695751460194 0.942079675431430
0.061074502783763 0.550372348863757 0.658139465819041 0.061711973042974 0.283136866575551 0.957092026489053
0.061437534649832 -0.237432557234949 0.786547683898267 -0.031937255908314 -0.035103780253283 0.998873233346943
0.061756643492465 1.101502001299334 0.399050317836178 0.145131006906611 0.665866549265531 0.731818781805638
0.061766683965741 0.135531775413922 0.750563080011758 0.151389817780809 0.139719151781997 0.978549784986749
0.061819379068260 -1.270406321264732 -0.000568177956103 0.133232222816021 -0.984860394789557 0.110901657239465
0.062144498519961 -1.017340546275860 -0.499239030762300 -0.288253136899701 -0.558581173364878 -0.777751375331345
0.062157225873184 -0.427675762513743 -0.740714662105977 0.050714122190543 -0.158867941510886 -0.985996478173496
0.062332548840038 -0.213404213830015 0.792229463459294 0.024093032387330 -0.009879199525533 0.999660906111226
0.062532935772268 -0.238429148078359 0.786547683898267 -0.031937255908314 -0.035103780253283 0.998873233346943
0.062602435959325 -0.170050223211233 0.808517231534240 0.007361760689788 0.023642025990733 0.999693382536165
0.062859777058233 -0.249147116268126 0.796396101804048 0.045312096974713 -0.014109485135117 0.998873233346943
0.062902214906355 1.315984892930833 -0.004166638344754 0.297302863938187 0.954777305664997 -0.003362094769831
0.063036974411352 -0.300289789007841 0.771206879083492 0.024365131812700 0.005492805551575 0.999688036058711
0.063053353210461 -1.107314427537559 0.391095826450739 0.247068224304249 -0.773970218009314 0.583032927178012
