ply
format ascii 1.0
element vertex 426
property double x
property double y
property double z
property double nx
property double ny
property double nz
end_header
-0.142778103640807 -0.965655875189910 -0.002083319172377 -0.086717482080393 -0.991185355742660 -0.100158219148177
-0.142693608038802 0.794502175283705 -0.465905924004271 -0.000000000000000 0.777014867410870 -0.629482244247182
-0.142617469555362 0.661414882324208 0.568556741406838 -0.098672277542110 0.559598293724843 0.822869085155651
-0.142538976603639 0.793811840612779 0.463065034223757 -0.063186854149393 0.722229047774515 0.688761659802156
-0.142513744349706 0.942607229174494 -0.170453386830831 0.000000000000000 0.991853471318705 -0.127384031310969
-0.142248556257041 0.019849351657940 0.756244859572786 -0.182227565743984 0.084974109433363 0.979577722801529
-0.141104791116679 -0.622064854518017 -0.526511572655233 -0.116573792247909 -0.661122828619460 -0.741166078850851
-0.141042147086187 -0.013414790972669 0.759275142005334 -0.166408695507753 0.044589075574819 0.985048202068706
-0.139887637671711 -0.787960087474186 0.447913622061016 -0.066936631061418 -0.765089194002644 0.640435799001377
-0.138623229374481 0.027623890246699 0.756244859572786 -0.182227565743984 0.084974109433363 0.979577722801529
-0.137444846282278 0.867607738968928 0.320452367241962 0.000000000000000 0.942452493115268 0.334340093648393
-0.137281063052942 0.662355834770613 0.568556741406838 -0.098672277542110 0.559598293724843 0.822869085155651
-0.136984106464110 0.883137936435737 -0.329543214539606 -0.000000000000000 0.880798061012542 -0.473492107343456
-0.136479412246462 0.678593872238741 -0.581814227049236 -0.000000000000000 0.624395358953507 -0.781108466038694
-0.136088566819405 0.794502175283705 -0.465905924004271 -0.000000000000000 0.777014867410870 -0.629482244247182
-0.136028070406405 -0.005432592450687 -0.767040240738738 -0.099368594957805 -0.008693625569307 -0.995012715099949
-0.135705936995066 -0.884144453880904 0.318369048069585 -0.075523573050439 -0.863238390057934 0.499114888421374
-0.135303241799115 0.794444885380454 0.463065034223757 -0.063186854149393 0.722229047774515 0.688761659802156
-0.135130360719618 0.004828276221971 -0.767040240738738 -0.099368594957805 0.008693625569307 -0.995012715099949
-0.134997902491922 0.035398428835458 0.756244859572786 -0.182227565743984 0.084974109433363 0.979577722801529
-0.134493192514748 0.662655097226248 0.566473422234461 -0.093115980598690 0.528086967885223 0.844069646715800
-0.134477736950676 0.787672928053289 0.465716531352236 -0.068454020922034 0.782433039473164 0.618960891947457
-0.134249867556000 -0.025757544035734 -0.767040240738738 -0.099368594957805 -0.008693625569307 -0.995012715099949
-0.134232651032832 0.015089144894628 -0.767040240738738 -0.099368594957805 0.008693625569307 -0.995012715099949
-0.133927544319914 0.035453113377346 0.756434252224820 -0.178410310035016 0.103005240524921 0.978549784986749
-0.133875795687534 0.538144269291351 -0.667609098420754 -0.070877938679885 0.401968765047208 -0.912906035545232
-0.133732420591414 -0.678991724900821 0.563821925105981 -0.056670214825576 -0.647743519465055 0.759747865902002
-0.133334941346046 0.025350013567286 -0.767040240738738 -0.099368594957805 0.008693625569307 -0.995012715099949
-0.132831624561520 -0.404789406804306 0.715146654081352 -0.083309502466350 -0.310915295957704 0.946779385885826
-0.132471664705595 -0.046082495620781 -0.767040240738738 -0.099368594957805 -0.008693625569307 -0.995012715099949
-0.132437231659260 0.035610882239943 -0.767040240738738 -0.099368594957805 0.008693625569307 -0.995012715099949
-0.131944656550521 0.663296787217018 0.568556741406838 -0.098672277542110 0.559598293724843 0.822869085155651
-0.131915333881505 -0.965275431689962 -0.004166638344754 -0.086858774896246 -0.992800340017868 -0.082480531544893
-0.131539521972474 0.045871750912601 -0.767040240738738 -0.099368594957805 0.008693625569307 -0.995012715099949
-0.131385699955195 -0.679197036352952 0.563821925105981 -0.056670214825576 -0.647743519465055 0.759747865902002
-0.131002691989649 -0.725808990001226 -0.426891037685214 -0.063591376639907 -0.726852760998737 -0.683842964901705
-0.130855266485108 -0.727152700769966 -0.424807718512837 -0.065472168918566 -0.748350315114436 -0.660064543029864
-0.130693461855190 -0.066407447205827 -0.767040240738738 -0.099368594957805 -0.008693625569307 -0.995012715099949
-0.130641812285688 0.056132619585259 -0.767040240738738 -0.099368594957805 0.008693625569307 -0.995012715099949
-0.130623760009934 -0.966719242470210 -0.002083319172377 -0.086717482080393 -0.991185355742660 -0.100158219148177
-0.130210699498866 0.041890877451252 0.756434252224820 -0.178410310035016 0.103005240524921 0.978549784986749
-0.129744102598903 0.066393488257916 -0.767040240738738 -0.099368594957805 0.008693625569307 -0.995012715099949
-0.129483525600007 0.794502175283705 -0.465905924004271 -0.000000000000000 0.777014867410870 -0.629482244247182
-0.129415043195137 0.386489654285519 -0.717419365905763 -0.076425624394016 0.285224313238644 -0.955408925577697
-0.129038979318977 -0.679402347805084 0.563821925105981 -0.056670214825576 -0.647743519465055 0.759747865902002
-0.128915259004785 -0.086732398790874 -0.767040240738738 -0.099368594957805 -0.008693625569307 -0.995012715099949
-0.128846392912117 0.076654356930574 -0.767040240738738 -0.099368594957805 0.008693625569307 -0.995012715099949
-0.128361044574822 0.043696387706076 -0.814388403747302 0.017317083218886 0.047578295114707 -0.998717389686776
-0.128067506994591 0.795077930148130 0.463065034223757 -0.063186854149393 0.722229047774515 0.688761659802156
-0.127948683225331 0.086915225603232 -0.767040240738738 -0.099368594957805 0.008693625569307 -0.995012715099949
-0.127137056154381 -0.107057350375921 -0.767040240738738 -0.099368594957805 -0.008693625569307 -0.995012715099949
-0.126692258682759 -0.679607659257215 0.563821925105981 -0.056670214825576 -0.647743519465055 0.759747865902002
-0.126629520641123 -0.547883814006401 0.653215256866150 -0.084991061741736 -0.482008263285913 0.872034720379935
-0.126608250048101 0.664237739663423 0.568556741406838 -0.098672277542110 0.559598293724843 0.822869085155651
-0.126493854677817 0.048328641525157 0.756434252224820 -0.178410310035016 0.103005240524921 0.978549784986749
-0.126435658670298 0.394066525925430 -0.715336046733386 -0.052410918141170 0.297237087203492 -0.953364153747341
-0.126372816049040 0.380246163342260 0.687116541580282 -0.078117397881725 0.291538097849672 0.953364153747341
-0.126105227791746 -0.246045753206462 0.751320650619895 -0.070557010407148 -0.122208326855346 0.989993350043132
-0.125358853303976 -0.127382301960967 -0.767040240738738 -0.099368594957805 -0.008693625569307 -0.995012715099949
-0.125048700470676 -0.081324740804302 0.764956921566361 -0.036850249873376 -0.063826505052296 0.997280420111154
-0.125013897397952 -0.950297974763612 0.168938245614557 -0.169190158139589 -0.959525067915296 0.225136257477218
-0.124661159335505 0.539769058297631 -0.667609098420754 -0.070877938679885 0.401968765047208 -0.912906035545232
-0.124345538046540 -0.679812970709347 0.563821925105981 -0.056670214825576 -0.647743519465055 0.759747865902002
-0.123684467749007 0.678593872238741 -0.581814227049236 -0.000000000000000 0.624395358953507 -0.781108466038694
-0.123580650453571 -0.147707253546014 -0.767040240738738 -0.099368594957805 -0.008693625569307 -0.995012715099949
-0.122878484380609 0.794502175283705 -0.465905924004271 -0.000000000000000 0.777014867410870 -0.629482244247182
-0.122777009856768 0.054766405599063 0.756434252224820 -0.178410310035016 0.103005240524921 0.978549784986749
-0.121998817410321 -0.680018282161478 0.563821925105981 -0.056670214825576 -0.647743519465055 0.759747865902002
-0.121802447603166 -0.168032205131061 -0.767040240738738 -0.099368594957805 -0.008693625569307 -0.995012715099949
-0.121271843545680 0.665178692109827 0.568556741406838 -0.098672277542110 0.559598293724843 0.822869085155651
-0.120882571704744 -0.514263092024098 -0.622344254584566 -0.141833093084279 -0.529328309585174 -0.836477683131982
-0.120831772190067 0.795710974915806 0.463065034223757 -0.063186854149393 0.722229047774515 0.688761659802156
-0.120262654349417 -0.550130763528639 0.652457686258013 -0.042657856895113 -0.487581535434849 0.872034720379935
-0.120024244752761 -0.188357156716108 -0.767040240738738 -0.099368594957805 -0.008693625569307 -0.995012715099949
-0.119991761550839 -0.515014592027558 -0.621965469280498 -0.104614382902666 -0.593297647826416 -0.798156458329779
-0.119654030572741 0.665271641847726 0.566473422234461 -0.093115980598690 0.528086967885223 0.844069646715800
-0.119652096774103 -0.680223593613609 0.563821925105981 -0.056670214825576 -0.647743519465055 0.759747865902002
-0.119060165035719 0.061204169672969 0.756434252224820 -0.178410310035016 0.103005240524921 0.978549784986749
-0.118469416379061 -0.967782609750510 -0.002083319172377 -0.086717482080393 -0.991185355742660 -0.100158219148177
-0.118125506448791 0.118599181857347 0.750563080011758 -0.035773344614593 0.202880718939659 0.978549784986749
-0.117909560140645 -0.515381740315445 -0.621965469280498 -0.104614382902666 -0.593297647826416 -0.798156458329779
-0.117633905948258 -0.726978607224951 -0.426891037685214 -0.063591376639907 -0.726852760998737 -0.683842964901705
-0.117305376137885 -0.680428905065741 0.563821925105981 -0.056670214825576 -0.647743519465055 0.759747865902002
-0.117296273269022 0.789176111348216 0.465716531352236 -0.068454020922034 0.782433039473164 0.618960891947457
-0.116851768481022 -0.966593322894786 -0.004166638344754 -0.086858774896246 -0.992800340017868 -0.082480531544893
-0.116639279824115 -0.409128132500259 0.715146654081352 -0.083309502466350 -0.310915295957704 0.946779385885826
-0.116431709439919 -0.626415384514853 -0.526511572655233 -0.116573792247909 -0.661122828619460 -0.741166078850851
-0.116273443161211 0.794502175283705 -0.465905924004271 -0.000000000000000 0.777014867410870 -0.629482244247182
-0.115935437043260 0.666119644556232 0.568556741406838 -0.098672277542110 0.559598293724843 0.822869085155651
-0.115827358730451 -0.515748888603331 -0.621965469280498 -0.104614382902666 -0.593297647826416 -0.798156458329779
-0.115419290074521 0.883137936435737 -0.329543214539606 -0.000000000000000 0.880798061012542 -0.473492107343456
-0.115373039759436 -0.728507220094600 -0.424807718512837 -0.065472168918566 -0.748350315114436 -0.660064543029864
-0.115343320214670 0.067641933746875 0.756434252224820 -0.178410310035016 0.103005240524921 0.978549784986749
-0.114958655501666 -0.680634216517872 0.563821925105981 -0.056670214825576 -0.647743519465055 0.759747865902002
-0.113745157320258 -0.516116036891217 -0.621965469280498 -0.104614382902666 -0.593297647826416 -0.798156458329779
-0.113596037385543 0.796344019683482 0.463065034223757 -0.063186854149393 0.722229047774515 0.688761659802156
-0.112611934865448 -0.680839527970004 0.563821925105981 -0.056670214825576 -0.647743519465055 0.759747865902002
-0.112399166544747 -0.790365017075455 0.447913622061016 -0.066936631061418 -0.765089194002644 0.640435799001377
-0.112112382151227 0.549049298247309 -0.663631852728034 -0.000000000000000 0.465415524804131 -0.885092305509033
-0.111662955910064 -0.516483185179104 -0.621965469280498 -0.104614382902666 -0.593297647826416 -0.798156458329779
-0.111626475393621 0.074079697820781 0.756434252224820 -0.178410310035016 0.103005240524921 0.978549784986749
-0.111619213618701 0.396679064946211 -0.715336046733386 -0.052410918141170 0.297237087203492 -0.953364153747341
-0.111488439401695 -0.886263210379290 0.318369048069585 -0.075523573050439 -0.863238390057934 0.499114888421374
-0.110889523251552 0.678593872238741 -0.581814227049236 -0.000000000000000 0.624395358953507 -0.781108466038694
-0.110599030540839 0.667060597002637 0.568556741406838 -0.098672277542110 0.559598293724843 0.822869085155651
-0.109580754499870 -0.516850333466990 -0.621965469280498 -0.104614382902666 -0.593297647826416 -0.798156458329779
-0.109278584816716 -0.255760620057654 0.751320650619895 -0.070557010407148 -0.122208326855346 0.989993350043132
-0.109033607574289 -0.414229584961875 0.713820905517112 -0.030470564744739 -0.348280148727046 0.936895128969515
-0.107909630572573 0.080517461894687 0.756434252224820 -0.178410310035016 0.103005240524921 0.978549784986749
-0.107498553089677 -0.517217481754876 -0.621965469280498 -0.104614382902666 -0.593297647826416 -0.798156458329779
-0.107343515350656 -0.953736827967449 0.166286748486077 -0.085290052485891 -0.974869760818998 0.205802226391417
-0.106360302581020 0.796977064451158 0.463065034223757 -0.063186854149393 0.722229047774515 0.688761659802156
-0.106315072748188 -0.968845977030809 -0.002083319172377 -0.086717482080393 -0.991185355742660 -0.100158219148177
-0.105965542708820 0.867607738968928 0.320452367241962 0.000000000000000 0.942452493115268 0.334340093648393
-0.105416351679483 -0.517584630042763 -0.621965469280498 -0.104614382902666 -0.593297647826416 -0.798156458329779
-0.105262624038419 0.668001549449042 0.568556741406838 -0.098672277542110 0.559598293724843 0.822869085155651
-0.104814868630733 0.667888186469204 0.566473422234461 -0.093115980598690 0.528086967885223 0.844069646715800
-0.104736518465915 0.035097763403789 -0.814388403747302 0.017317083218886 0.047578295114707 -0.998717389686776
-0.104265119906867 -0.728148224448676 -0.426891037685214 -0.063591376639907 -0.726852760998737 -0.683842964901705
-0.104192785751524 0.086955225968592 0.756434252224820 -0.178410310035016 0.103005240524921 0.978549784986749
-0.103640733392770 0.130559727299883 -0.768555381955012 -0.115651874085635 0.042093839704274 -0.992397477162972
-0.103334150269289 -0.517951778330649 -0.621965469280498 -0.104614382902666 -0.593297647826416 -0.798156458329779
-0.101961520997696 0.135173325437818 -0.768555381955012 -0.115651874085635 0.042093839704274 -0.992397477162972
-0.101788203080539 -0.967911214099610 -0.004166638344754 -0.086858774896246 -0.992800340017868 -0.082480531544893
-0.101377107759145 0.260018700489258 -0.756244859572786 -0.046019078834513 0.260987165149729 -0.964244753167125
-0.101251948859096 -0.518318926618536 -0.621965469280498 -0.104614382902666 -0.593297647826416 -0.798156458329779
-0.100475940930475 0.093392990042498 0.756434252224820 -0.178410310035016 0.103005240524921 0.978549784986749
-0.100414903938353 -0.095547069863401 0.764956921566361 -0.036850249873376 -0.063826505052296 0.997280420111154
-0.100282308602622 0.139786923575752 -0.768555381955012 -0.115651874085635 0.042093839704274 -0.992397477162972
-0.100114809587370 0.790679294643143 0.465716531352236 -0.068454020922034 0.782433039473164 0.618960891947457
-0.099890813033763 -0.729861739419235 -0.424807718512837 -0.065472168918566 -0.748350315114436 -0.660064543029864
-0.099741623658820 -0.112308186455021 0.769502345215183 -0.031588075516233 -0.067740846550140 0.997202773358484
-0.099610775058536 -0.517716670631649 -0.622533647236601 -0.051611414713901 -0.589921169599391 -0.805809701809128
-0.099399440603294 0.121901092508431 0.750563080011758 -0.035773344614593 0.202880718939659 0.978549784986749
-0.099124567776496 0.797610109218834 0.463065034223757 -0.063186854149393 0.722229047774515 0.688761659802156
-0.098991961886025 -0.551991707984532 0.652457686258013 -0.042657856895113 -0.487581535434849 0.872034720379935
-0.098857653445866 -0.955810057392743 0.161551932185221 -0.084518377125354 -0.966049471087304 0.244141482218891
-0.098603096207548 0.144400521713686 -0.768555381955012 -0.115651874085635 0.042093839704274 -0.992397477162972
-0.098094578754097 0.678593872238741 -0.581814227049236 -0.000000000000000 0.624395358953507 -0.781108466038694
-0.096923883812474 0.149014119851620 -0.768555381955012 -0.115651874085635 0.042093839704274 -0.992397477162972
-0.096802768567105 0.399291603966992 -0.715336046733386 -0.052410918141170 0.297237087203492 -0.953364153747341
-0.095636067635263 0.549049298247309 -0.663631852728034 -0.000000000000000 0.465415524804131 -0.885092305509033
-0.095244671417400 0.153627717989554 -0.768555381955012 -0.115651874085635 0.042093839704274 -0.992397477162972
-0.094160729117315 -0.969909344311109 -0.002083319172377 -0.086717482080393 -0.991185355742660 -0.100158219148177
-0.093854473684932 0.883137936435737 -0.329543214539606 -0.000000000000000 0.880798061012542 -0.473492107343456
-0.093565459022326 0.158241316127488 -0.768555381955012 -0.115651874085635 0.042093839704274 -0.992397477162972
-0.093092754036072 0.389163529082692 0.687116541580282 -0.078117397881725 0.291538097849672 0.953364153747341
-0.092702063620100 -0.955017789011434 0.166286748486077 -0.085290052485891 -0.974869760818998 0.205802226391417
-0.092451941841685 -0.265475486908845 0.751320650619895 -0.070557010407148 -0.122208326855346 0.989993350043132
-0.091888832971972 0.798243153986509 0.463065034223757 -0.063186854149393 0.722229047774515 0.688761659802156
-0.091886246627252 0.162854914265423 -0.768555381955012 -0.115651874085635 0.042093839704274 -0.992397477162972
-0.091758627763159 -0.630765914511690 -0.526511572655233 -0.116573792247909 -0.661122828619460 -0.741166078850851
-0.090896333865476 -0.729317841672402 -0.426891037685214 -0.063591376639907 -0.726852760998737 -0.683842964901705
-0.090207034232178 0.167468512403357 -0.768555381955012 -0.115651874085635 0.042093839704274 -0.992397477162972
-0.089975706688726 0.670504731090682 0.566473422234461 -0.093115980598690 0.528086967885223 0.844069646715800
-0.088527821837104 0.172082110541291 -0.768555381955012 -0.115651874085635 0.042093839704274 -0.992397477162972
-0.088238258563704 0.262335434097874 -0.756244859572786 -0.046019078834513 0.260987165149729 -0.964244753167125
-0.087270941808324 -0.888381966877677 0.318369048069585 -0.075523573050439 -0.863238390057934 0.499114888421374
-0.086724637680055 -0.969229105304433 -0.004166638344754 -0.086858774896246 -0.992800340017868 -0.082480531544893
-0.086116077280074 -0.518897303704973 -0.622533647236601 -0.051611414713901 -0.589921169599391 -0.805809701809128
-0.085871223622245 -0.416256030977913 0.713820905517112 -0.030470564744739 -0.348280148727046 0.936895128969515
-0.085299634256641 0.678593872238741 -0.581814227049236 -0.000000000000000 0.624395358953507 -0.781108466038694
-0.085212738052814 -0.957003832804405 0.161551932185221 -0.084518377125354 -0.966049471087304 0.244141482218891
-0.084910695417783 -0.792769946676724 0.447913622061016 -0.066936631061418 -0.765089194002644 0.640435799001377
-0.084653098167448 0.798876198754185 0.463065034223757 -0.063186854149393 0.722229047774515 0.688761659802156
-0.084408586308091 -0.731216258743869 -0.424807718512837 -0.065472168918566 -0.748350315114436 -0.660064543029864
-0.082933345905717 0.792182477938070 0.465716531352236 -0.068454020922034 0.782433039473164 0.618960891947457
-0.082006385486442 -0.970972711591409 -0.002083319172377 -0.086717482080393 -0.991185355742660 -0.100158219148177
-0.081986323515508 0.401904142987773 -0.715336046733386 -0.052410918141170 0.297237087203492 -0.953364153747341
-0.081111992357008 0.026499139101502 -0.814388403747302 0.017317083218886 0.047578295114707 -0.998717389686776
-0.080673374757796 0.125203003159516 0.750563080011758 -0.035773344614593 0.202880718939659 0.978549784986749
-0.079159753119300 0.549049298247309 -0.663631852728034 -0.000000000000000 0.465415524804131 -0.885092305509033
-0.078592191985869 -0.122170328409744 0.769502345215183 -0.031588075516233 -0.067740846550140 0.997202773358484
-0.078060611889545 -0.956298750055420 0.166286748486077 -0.085290052485891 -0.974869760818998 0.205802226391417
-0.077789886104181 -0.518294938334835 -0.624616966408977 -0.051460989606282 -0.588201802751667 -0.807075216933608
-0.077721269422633 -0.553852652440425 0.652457686258013 -0.042657856895113 -0.487581535434849 0.872034720379935
-0.077527547824085 -0.730487458896127 -0.426891037685214 -0.063591376639907 -0.726852760998737 -0.683842964901705
-0.077417363362924 0.799509243521861 0.463065034223757 -0.063186854149393 0.722229047774515 0.688761659802156
-0.075781107406030 -0.109769398922499 0.764956921566361 -0.036850249873376 -0.063826505052296 0.997280420111154
-0.075625298866655 -0.275190353760036 0.751320650619895 -0.070557010407148 -0.122208326855346 0.989993350043132
-0.075136544746718 0.673121275712160 0.566473422234461 -0.093115980598690 0.528086967885223 0.844069646715800
-0.075099409368262 0.264652167706490 -0.756244859572786 -0.046019078834513 0.260987165149729 -0.964244753167125
-0.074486239135361 0.867607738968928 0.320452367241962 0.000000000000000 0.942452493115268 0.334340093648393
-0.072621379501612 -0.520077936778297 -0.622533647236601 -0.051611414713901 -0.589921169599391 -0.805809701809128
-0.072504689759186 0.678593872238741 -0.581814227049236 -0.000000000000000 0.624395358953507 -0.781108466038694
-0.072289657295343 0.883137936435737 -0.329543214539606 -0.000000000000000 0.880798061012542 -0.473492107343456
-0.071661072279572 -0.970546996509257 -0.004166638344754 -0.086858774896246 -0.992800340017868 -0.082480531544893
-0.071567822659761 -0.958197608216068 0.161551932185221 -0.084518377125354 -0.966049471087304 0.244141482218891
-0.069852041855569 -0.972036078871709 -0.002083319172377 -0.086717482080393 -0.991185355742660 -0.100158219148177
-0.068926359582418 -0.732570778068504 -0.424807718512837 -0.065472168918566 -0.748350315114436 -0.660064543029864
-0.067851807622341 -0.519164407539227 -0.624616966408977 -0.051460989606282 -0.588201802751667 -0.807075216933608
-0.067169878463912 0.404516682008554 -0.715336046733386 -0.052410918141170 0.297237087203492 -0.953364153747341
-0.065751882224064 0.793685661232997 0.465716531352236 -0.068454020922034 0.782433039473164 0.618960891947457
-0.063419160158989 -0.957579711099406 0.166286748486077 -0.085290052485891 -0.974869760818998 0.205802226391417
-0.063053444214953 -0.890500723376063 0.318369048069585 -0.075523573050439 -0.863238390057934 0.499114888421374
-0.062708839670201 -0.418282476993952 0.713820905517112 -0.030470564744739 -0.348280148727046 0.936895128969515
-0.062683438603336 0.549049298247309 -0.663631852728034 -0.000000000000000 0.465415524804131 -0.885092305509033
-0.061960560172821 0.266968901315106 -0.756244859572786 -0.046019078834513 0.260987165149729 -0.964244753167125
-0.061947308912299 0.128504913810600 0.750563080011758 -0.035773344614593 0.202880718939659 0.978549784986749
-0.060297382804711 0.675737820333638 0.566473422234461 -0.093115980598690 0.528086967885223 0.844069646715800
-0.059812692023105 0.398080894823125 0.687116541580282 -0.078117397881725 0.291538097849672 0.953364153747341
-0.059126681723151 -0.521258569851621 -0.622533647236601 -0.051611414713901 -0.589921169599391 -0.805809701809128
-0.058798655891625 -0.284905220611228 0.751320650619895 -0.070557010407148 -0.122208326855346 0.989993350043132
-0.057922907266709 -0.959391383627730 0.161551932185221 -0.084518377125354 -0.966049471087304 0.244141482218891
-0.057913729140501 -0.520033876743619 -0.624616966408977 -0.051460989606282 -0.588201802751667 -0.807075216933608
-0.057697698224696 -0.973099446152009 -0.002083319172377 -0.086717482080393 -0.991185355742660 -0.100158219148177
-0.057487466248101 0.017900514799215 -0.814388403747302 0.017317083218886 0.047578295114707 -0.998717389686776
-0.057442760312917 -0.132032470364467 0.769502345215183 -0.031588075516233 -0.067740846550140 0.997202773358484
-0.057422224290818 -0.795174876277993 0.447913622061016 -0.066936631061418 -0.765089194002644 0.640435799001377
-0.056597506879089 -0.971864887714081 -0.004166638344754 -0.086858774896246 -0.992800340017868 -0.082480531544893
-0.056450576959241 -0.555713596896318 0.652457686258013 -0.042657856895113 -0.487581535434849 0.872034720379935
-0.053403906268008 0.678414915214121 0.565337066322255 -0.049124813068408 0.561499182735283 0.826017808844702
-0.052353433412315 0.407129221029334 -0.715336046733386 -0.052410918141170 0.297237087203492 -0.953364153747341
-0.051485223611632 0.134949915632116 -0.773479590907903 -0.036195836354027 0.062693027587623 -0.997376280910334
-0.051147310873708 -0.123991727981598 0.764956921566361 -0.036850249873376 -0.063826505052296 0.997280420111154
-0.050724840905754 0.883137936435737 -0.329543214539606 -0.000000000000000 0.880798061012542 -0.473492107343456
-0.048821710977380 0.269285634923722 -0.756244859572786 -0.046019078834513 0.260987165149729 -0.964244753167125
-0.048777708428434 -0.958860672143391 0.166286748486077 -0.085290052485891 -0.974869760818998 0.205802226391417
-0.048570418542411 0.795188844527924 0.465716531352236 -0.068454020922034 0.782433039473164 0.618960891947457
-0.047975650658661 -0.520903345948010 -0.624616966408977 -0.051460989606282 -0.588201802751667 -0.807075216933608
-0.046207124087372 0.549049298247309 -0.663631852728034 -0.000000000000000 0.465415524804131 -0.885092305509033
-0.045631983944689 -0.522439202924945 -0.622533647236601 -0.051611414713901 -0.589921169599391 -0.805809701809128
-0.044775605802943 0.005818518922232 0.773100805603835 0.008548113038375 0.097705379118540 0.995178671724221
-0.044467650277326 0.021571492545549 -0.811358121314754 0.019922013470784 0.042722895758582 -0.998888315857820
-0.044277991873656 -0.960585159039393 0.161551932185221 -0.084518377125354 -0.966049471087304 0.244141482218891
-0.043221243066802 0.131806824461685 0.750563080011758 -0.035773344614593 0.202880718939659 0.978549784986749
-0.043006935561902 0.867607738968928 0.320452367241962 0.000000000000000 0.942452493115268 0.334340093648393
-0.041972012916595 -0.294620087462419 0.751320650619895 -0.070557010407148 -0.122208326855346 0.989993350043132
-0.041533941478606 -0.973182778918904 -0.004166638344754 -0.086858774896246 -0.992800340017868 -0.082480531544893
-0.041390252650052 0.934999957651118 0.004734816300856 0.086972532083022 0.994100590612529 0.064805820779380
-0.040377707858154 -0.841850338292270 -0.302270672646673 0.000000000000000 -0.804741321088543 -0.593625644773427
-0.039546455718158 -0.420308923009990 0.713820905517112 -0.030470564744739 -0.348280148727046 0.936895128969515
-0.039440422892139 0.141903984569851 -0.773479590907903 -0.036195836354027 0.062693027587623 -0.997376280910334
-0.038835946621582 -0.892619479874449 0.318369048069585 -0.075523573050439 -0.863238390057934 0.499114888421374
-0.038037572176822 -0.521772815152402 -0.624616966408977 -0.051460989606282 -0.588201802751667 -0.807075216933608
-0.037617360392455 0.679796059014464 0.565337066322255 -0.049124813068408 0.561499182735283 0.826017808844702
-0.037536988360719 0.409741760050115 -0.715336046733386 -0.052410918141170 0.297237087203492 -0.953364153747341
-0.036293328639966 -0.141894612319190 0.769502345215183 -0.031588075516233 -0.067740846550140 0.997202773358484
-0.035866176506090 0.017560559454602 -0.811358121314754 0.019922013470784 0.042722895758582 -0.998888315857820
-0.035682861781938 0.271602368532338 -0.756244859572786 -0.046019078834513 0.260987165149729 -0.964244753167125
-0.035179884495849 -0.557574541352211 0.652457686258013 -0.042657856895113 -0.487581535434849 0.872034720379935
-0.034136256697878 -0.960141633187377 0.166286748486077 -0.085290052485891 -0.974869760818998 0.205802226391417
-0.033862940139194 0.009301890496928 -0.814388403747302 0.017317083218886 0.047578295114707 -0.998717389686776
-0.033267579953552 -0.003363295230621 -0.806623305013898 0.001960547321148 0.022409158422766 -0.999746960922105
-0.032716042013267 -0.973288838804043 -0.006818135473233 0.000000000000000 -0.989159347555919 -0.146846127435317
-0.032137286166227 -0.523619835998268 -0.622533647236601 -0.051611414713901 -0.589921169599391 -0.805809701809128
-0.031671091816051 -0.021538791076051 -0.777835621904691 -0.000000000000000 0.000000000000000 -1.000000000000000
-0.031388954860757 0.796692027822851 0.465716531352236 -0.068454020922034 0.782433039473164 0.618960891947457
-0.030633076480603 -0.961778934451055 0.161551932185221 -0.084518377125354 -0.966049471087304 0.244141482218891
-0.029933753163854 -0.797579805879262 0.447913622061016 -0.066936631061418 -0.765089194002644 0.640435799001377
-0.029730809571409 0.549049298247309 -0.663631852728034 -0.000000000000000 0.465415524804131 -0.885092305509033
-0.028099493694982 -0.522642284356794 -0.624616966408977 -0.051460989606282 -0.588201802751667 -0.807075216933608
-0.027395622172645 0.148858053507585 -0.773479590907903 -0.036195836354027 0.062693027587623 -0.997376280910334
-0.027264702734855 0.013549626363656 -0.811358121314754 0.019922013470784 0.042722895758582 -0.998888315857820
-0.027259610328793 -0.192723663800320 -0.773290198255869 0.032099281428807 -0.038254433962473 -0.998752338877845
-0.027130820901175 -0.841850338292270 -0.302270672646673 0.000000000000000 -0.804741321088543 -0.593625644773427
-0.026532630010137 0.406998260563557 0.687116541580282 -0.078117397881725 0.291538097849672 0.953364153747341
-0.026513514341385 -0.138214057040697 0.764956921566361 -0.036850249873376 -0.063826505052296 0.997280420111154
-0.024495177221305 0.135108735112769 0.750563080011758 -0.035773344614593 0.202880718939659 0.978549784986749
-0.023465137605687 0.009800206369996 -0.802646059321178 -0.014459351575800 -0.017231984187042 -0.999746960922105
-0.023206297970427 -0.011450842599959 -0.777835621904691 -0.000000000000000 0.000000000000000 -1.000000000000000
-0.022954096676251 -0.004265608098849 -0.806623305013898 0.001960547321148 0.022409158422766 -0.999746960922105
-0.022892924173876 0.013873311326132 -0.812683869878994 0.023729010214419 0.041099851304694 -0.998873233346943
-0.022720543309122 0.412354299070896 -0.715336046733386 -0.052410918141170 0.297237087203492 -0.953364153747341
-0.022544012586497 0.273919102140954 -0.756244859572786 -0.046019078834513 0.260987165149729 -0.964244753167125
-0.021970170094983 0.003823301831016 0.773100805603835 0.008548113038375 0.097705379118540 0.995178671724221
-0.021830814516902 0.681177202814807 0.565337066322255 -0.049124813068408 0.561499182735283 0.826017808844702
-0.021660013792300 -0.015785791752671 -0.806055127057795 -0.013019915445983 0.022551155062694 -0.999660906111226
-0.020406640872005 0.941339121852178 -0.174620025175584 0.084898916841506 0.970399059946205 -0.226092543828097
-0.019494804967323 -0.961422594231363 0.166286748486077 -0.085290052485891 -0.974869760818998 0.205802226391417
-0.019356886848253 0.011831779224319 -0.812683869878994 0.023729010214419 0.041099851304694 -0.998873233346943
-0.018920267479787 -0.014203998481630 -0.806055127057795 -0.013019915445983 0.022551155062694 -0.999660906111226
-0.018663228963619 0.009538693272709 -0.811358121314754 0.019922013470784 0.042722895758582 -0.998888315857820
-0.018642588387765 -0.524800469071592 -0.622533647236601 -0.051611414713901 -0.589921169599391 -0.805809701809128
-0.018161415213142 -0.523511753561186 -0.624616966408977 -0.051460989606282 -0.588201802751667 -0.807075216933608
-0.017431614006879 -0.002112092171852 -0.803971807885418 -0.008650058554333 0.049056919817820 -0.998758526924799
-0.016988161087551 -0.962972709862718 0.161551932185221 -0.084518377125354 -0.966049471087304 0.244141482218891
-0.016470034081968 -0.003502077361062 -0.795070353239808 -0.000000000000000 -0.000000000000000 -1.000000000000000
-0.016384071766114 -0.422335369026029 0.713820905517112 -0.030470564744739 -0.348280148727046 0.936895128969515
-0.016223742865392 0.003723954714206 -0.802646059321178 -0.014459351575800 -0.017231984187042 -0.999746960922105
-0.016180521167275 -0.012622205210590 -0.806055127057795 -0.013019915445983 0.022551155062694 -0.999660906111226
-0.015820849522631 0.009790247122506 -0.812683869878994 0.023729010214419 0.041099851304694 -0.998873233346943
-0.015742662090396 -0.001814284379857 -0.803971807885418 -0.008650058554333 0.049056919817820 -0.998758526924799
-0.015579946759347 -0.001593278937847 -0.795070353239808 -0.004337141121306 0.024597149590380 -0.999688036058711
-0.015350821453152 0.155812122445320 -0.773479590907903 -0.036195836354027 0.062693027587623 -0.997376280910334
-0.015143896967014 -0.151756754273913 0.769502345215183 -0.031588075516233 -0.067740846550140 0.997202773358484
-0.014741504124803 -0.001362894123868 -0.777835621904691 -0.000000000000000 0.000000000000000 -1.000000000000000
-0.014618449028211 -0.894738236372836 0.318369048069585 -0.075523573050439 -0.863238390057934 0.499114888421374
-0.014053710173914 -0.001516476587862 -0.803971807885418 -0.008650058554333 0.049056919817820 -0.998758526924799
-0.013909192032457 -0.559435485808104 0.652457686258013 -0.042657856895113 -0.487581535434849 0.872034720379935
-0.013883933944197 -0.841850338292270 -0.302270672646673 0.000000000000000 -0.804741321088543 -0.593625644773427
-0.013440774854762 -0.011040411939550 -0.806055127057795 -0.013019915445983 0.022551155062694 -0.999660906111226
-0.013340228706541 0.932545898544430 0.004734816300856 0.086972532083022 0.994100590612529 0.064805820779380
-0.013254495055445 0.549049298247309 -0.663631852728034 -0.000000000000000 0.465415524804131 -0.885092305509033
-0.012697614758961 -0.082116328387177 -0.780676511685205 -0.027351343178537 0.002392932460329 -0.999623017892530
-0.012640613398951 -0.005167920967077 -0.806623305013898 0.001960547321148 0.022409158422766 -0.999746960922105
-0.012364758257431 -0.001218668795867 -0.803971807885418 -0.008650058554333 0.049056919817820 -0.998758526924799
-0.012284812197007 0.007748715020693 -0.812683869878994 0.023729010214419 0.041099851304694 -0.998873233346943
-0.011952175028821 -0.073595913283123 -0.780676511685205 -0.027351343178537 0.002392932460329 -0.999623017892530
-0.011939378811096 -0.000951348583468 -0.795070353239808 -0.004337141121306 0.024597149590380 -0.999688036058711
-0.011849523447183 -0.003906319661307 -0.795070353239808 -0.000000000000000 -0.000000000000000 -1.000000000000000
-0.011527631988443 0.867607738968928 0.320452367241962 0.000000000000000 0.942452493115268 0.334340093648393
-0.011206735298681 -0.065075498179069 -0.780676511685205 -0.027351343178537 0.002392932460329 -0.999623017892530
-0.011052401574243 -0.007474566010425 -0.805865734405761 0.003906173693372 0.022153011851490 -0.999746960922105
-0.010725598220894 -0.000841105410429 -0.780108333729102 0.000000000000000 -0.000000000000000 -1.000000000000000
-0.010701028542250 -0.009458618668509 -0.806055127057795 -0.013019915445983 0.022551155062694 -0.999660906111226
-0.010681437494253 -0.178812925089264 -0.773290198255869 0.032099281428807 -0.038254433962473 -0.998752338877845
-0.010675806340948 -0.000920861003872 -0.803971807885418 -0.008650058554333 0.049056919817820 -0.998758526924799
-0.010461295568542 -0.056555083075016 -0.780676511685205 -0.027351343178537 0.002392932460329 -0.999623017892530
-0.010238414030287 0.000703266194641 -0.814388403747302 0.017317083218886 0.047578295114707 -0.998717389686776
-0.010061755192384 0.005527760181763 -0.811358121314754 0.019922013470784 0.042722895758582 -0.998888315857820
-0.010052939607929 -0.007650798121278 -0.805865734405761 0.003906173693372 0.022153011851490 -0.999746960922105
-0.009973233642651 -0.000209796570314 -0.780108333729102 0.000000000000000 -0.000000000000000 -1.000000000000000
-0.009868300623503 -0.006111891031104 -0.803214237277281 -0.012488300135303 -0.021630370334514 -0.999688036058711
-0.009715855838402 -0.048034667970962 -0.780676511685205 -0.027351343178537 0.002392932460329 -0.999623017892530
-0.009589838416611 -0.005306579623532 -0.780297726381136 -0.024475002936329 0.004315603370594 -0.999691127198203
-0.009537184999961 0.006659982946795 -0.795259745891842 -0.019038567908544 0.071052902738035 -0.997290839196115
-0.009437441107666 -0.004442291535956 -0.780297726381136 -0.024475002936329 0.004315603370594 -0.999691127198203
-0.009405163391056 0.276235835749570 -0.756244859572786 -0.046019078834513 0.260987165149729 -0.964244753167125
-0.009285043798721 -0.003578003448381 -0.780297726381136 -0.024475002936329 0.004315603370594 -0.999691127198203
-0.009220869064408 0.000421512269800 -0.780108333729102 0.000000000000000 -0.000000000000000 -1.000000000000000
-0.009132646489777 -0.002713715360805 -0.780297726381136 -0.024475002936329 0.004315603370594 -0.999691127198203
-0.009065781317232 -0.005113601604925 -0.804539985841521 0.000000000000000 0.026039830891967 -0.999660906111226
-0.009053477641616 -0.007827030232131 -0.805865734405761 0.003906173693372 0.022153011851490 -0.999746960922105
-0.008986854424466 -0.000623053211877 -0.803971807885418 -0.008650058554333 0.049056919817820 -0.998758526924799
-0.008982348125097 -0.002352296941585 -0.802646059321178 -0.014459351575800 -0.017231984187042 -0.999746960922105
-0.008980249180833 -0.001849427273230 -0.780297726381136 -0.024475002936329 0.004315603370594 -0.999691127198203
-0.008970416108262 -0.039514252866908 -0.780676511685205 -0.027351343178537 0.002392932460329 -0.999623017892530
-0.008827851871888 -0.000985139185654 -0.780297726381136 -0.024475002936329 0.004315603370594 -0.999691127198203
-0.008748774871384 0.005707182918880 -0.812683869878994 0.023729010214419 0.041099851304694 -0.998873233346943
-0.008747005475591 0.006878686225771 -0.813441440487131 -0.001931946249091 -0.001352763327030 -0.999997218803668
-0.008675454562944 -0.000120851098079 -0.780297726381136 -0.024475002936329 0.004315603370594 -0.999691127198203
-0.008523057253999 0.000743436989497 -0.780297726381136 -0.024475002936329 0.004315603370594 -0.999691127198203
-0.008472310214316 0.002932127322557 -0.809085409490343 -0.022551155062694 -0.013019915445983 -0.999660906111226
-0.008468504486165 0.001052821109915 -0.780108333729102 0.000000000000000 -0.000000000000000 -1.000000000000000
-0.008397343471396 -0.014423031643656 -0.796206709152014 -0.043011573471999 0.020056626099290 -0.998873233346943
-0.008370659945055 0.001607725077072 -0.780297726381136 -0.024475002936329 0.004315603370594 -0.999691127198203
-0.008349934232601 -0.014321362202966 -0.796206709152014 -0.043011573471999 0.020056626099290 -0.998873233346943
-0.008302524993807 -0.014219692762276 -0.796206709152014 -0.043011573471999 0.020056626099290 -0.998873233346943
-0.008298810862845 -0.000309418229089 -0.795070353239808 -0.004337141121306 0.024597149590380 -0.999688036058711
-0.008255115755013 -0.014118023321585 -0.796206709152014 -0.043011573471999 0.020056626099290 -0.998873233346943
-0.008224976378122 -0.030993837762854 -0.780676511685205 -0.027351343178537 0.002392932460329 -0.999623017892530
-0.008223336731302 -0.524381222765578 -0.624616966408977 -0.051460989606282 -0.588201802751667 -0.807075216933608
-0.008218262636111 0.002472013164648 -0.780297726381136 -0.024968808471946 0.043247244877867 -0.998752338877845
-0.008207706516219 -0.014016353880895 -0.796206709152014 -0.043011573471999 0.020056626099290 -0.998873233346943
-0.008160297277424 -0.013914684440204 -0.796206709152014 -0.043011573471999 0.020056626099290 -0.998873233346943
-0.008112888038630 -0.013813014999514 -0.796206709152014 -0.043011573471999 0.020056626099290 -0.998873233346943
-0.008065478799836 -0.013711345558824 -0.796206709152014 -0.043011573471999 0.020056626099290 -0.998873233346943
-0.008054015675302 -0.008003262342984 -0.805865734405761 0.003906173693372 0.022153011851490 -0.999746960922105
-0.008018069561042 -0.013609676118133 -0.796206709152014 -0.043011573471999 0.020056626099290 -0.998873233346943
-0.007970660322247 -0.013508006677443 -0.796206709152014 -0.043011573471999 0.020056626099290 -0.998873233346943
-0.007961282229737 -0.007876825397469 -0.806055127057795 -0.013019915445983 0.022551155062694 -0.999660906111226
-0.007904098257526 0.414966838091677 -0.715336046733386 -0.052410918141170 0.297237087203492 -0.953364153747341
-0.007716139907923 0.001684129950029 -0.780108333729102 0.000000000000000 -0.000000000000000 -1.000000000000000
-0.007653549136347 0.007164701655285 -0.795259745891842 -0.019038567908544 0.071052902738035 -0.997290839196115
-0.007479536647983 -0.022473422658800 -0.780676511685205 -0.027351343178537 0.002392932460329 -0.999623017892530
-0.007297902507983 -0.000325245419881 -0.803971807885418 -0.008650058554333 0.049056919817820 -0.998758526924799
-0.007229012812399 -0.004310561961552 -0.795070353239808 -0.000000000000000 -0.000000000000000 -1.000000000000000
-0.007054553708988 -0.008179494453837 -0.805865734405761 0.003906173693372 0.022153011851490 -0.999746960922105
-0.007047353450101 0.801320310756939 0.461360500355448 -0.000000000000000 0.774419230719625 0.632672786748114
-0.006963775329680 0.002315438790144 -0.780108333729102 0.000000000000000 -0.000000000000000 -1.000000000000000
-0.006734096917843 -0.013953007554747 -0.780676511685205 -0.027351343178537 0.002392932460329 -0.999623017892530
-0.006276710279179 0.008725054352224 -0.777835621904691 -0.000000000000000 0.000000000000000 -1.000000000000000
-0.006211410751437 0.002946747630258 -0.780108333729102 0.000000000000000 -0.000000000000000 -1.000000000000000
-0.006055091742675 -0.008355726564690 -0.805865734405761 0.003906173693372 0.022153011851490 -0.999746960922105
-0.006044268641349 0.682558346615149 0.565337066322255 -0.049124813068408 0.561499182735283 0.826017808844702
-0.005988657187704 -0.005432592450691 -0.780676511685205 -0.027351343178536 -0.002392932460329 -0.999623017892530
-0.005984109451531 -0.005380611588388 -0.780676511685205 -0.027351343178537 0.002392932460329 -0.999623017892530
-0.005979561715359 -0.005328630726085 -0.780676511685205 -0.027351343178537 0.002392932460329 -0.999623017892530
-0.005975013979187 -0.005276649863782 -0.780676511685205 -0.027351343178537 0.002392932460329 -0.999623017892530
-0.005970466243016 -0.005224669001479 -0.780676511685205 -0.027351343178537 0.002392932460329 -0.999623017892530
-0.005965918506844 -0.005172688139175 -0.780676511685205 -0.027351343178537 0.002392932460329 -0.999623017892530
-0.005961370770672 -0.005120707276872 -0.780676511685205 -0.027351343178537 0.002392932460329 -0.999623017892530
-0.005956823034500 -0.005068726414569 -0.780676511685205 -0.027351343178537 0.002392932460329 -0.999623017892530
-0.005952275298328 -0.005016745552266 -0.780676511685205 -0.027351343178537 0.002392932460329 -0.999623017892530
-0.005947727562157 -0.004964764689963 -0.780676511685205 -0.027351343178537 0.002392932460329 -0.999623017892530
-0.005835970268398 0.002721297097063 -0.813441440487131 -0.001931946249091 -0.001352763327030 -0.999997218803668
-0.005769913272733 0.007669420363774 -0.795259745891842 -0.019038567908544 0.071052902738035 -0.997290839196115
-0.005769111375807 0.138410645763853 0.750563080011758 -0.035773344614593 0.202880718939659 0.978549784986749
-0.005608950591500 -0.000027437627886 -0.803971807885418 -0.008650058554333 0.049056919817820 -0.998758526924799
-0.005459046173194 0.003578056470372 -0.780108333729102 0.000000000000000 -0.000000000000000 -1.000000000000000
-0.005334986656407 0.015026045350139 -0.809842980098480 -0.021463260156297 -0.010008482579855 -0.999719540041062
-0.005221535917225 -0.006295032126429 -0.806055127057795 -0.013019915445983 0.022551155062694 -0.999660906111226
-0.005212737545762 0.003665650817067 -0.812683869878994 0.023729010214419 0.041099851304694 -0.998873233346943
-0.005147890609303 -0.525981102144916 -0.622533647236601 -0.051611414713901 -0.589921169599391 -0.805809701809128
-0.005055629776362 -0.008531958675543 -0.805865734405761 0.003906173693372 0.022153011851490 -0.999746960922105
-0.004853353236768 -0.962703555275348 0.166286748486077 -0.085290052485891 -0.974869760818998 0.205802226391417
-0.004706681594951 0.004209365310487 -0.780108333729102 0.000000000000000 -0.000000000000000 -1.000000000000000
-0.004702472480057 -0.009094383300310 -0.803214237277281 -0.012488300135303 -0.021630370334514 -0.999688036058711
-0.004658242914595 0.000332512125290 -0.795070353239808 -0.004337141121306 0.024597149590380 -0.999688036058711
-0.004056167810048 -0.008708190786396 -0.805865734405761 0.003906173693372 0.022153011851490 -0.999746960922105
-0.004012356880232 -0.004792738451463 -0.809085409490343 -0.022551155062694 -0.013019915445983 -0.999660906111226
-0.003954317016708 0.004840674150601 -0.780108333729102 0.000000000000000 -0.000000000000000 -1.000000000000000
-0.003919998675018 0.000270370164109 -0.803971807885418 -0.008650058554333 0.049056919817820 -0.998758526924799
-0.003886277409119 0.008174139072264 -0.795259745891842 -0.019038567908544 0.071052902738035 -0.997290839196115
-0.003824038570228 -0.005113601604925 -0.804539985841521 0.000000000000000 0.026039830891967 -0.999660906111226
-0.003343245694498 -0.964166485274380 0.161551932185221 -0.084518377125354 -0.966049471087304 0.244141482218891
-0.003306020733659 0.162766191383055 -0.773479590907903 -0.036195836354027 0.062693027587623 -0.997376280910334
-0.003056705843734 -0.008884422897249 -0.805865734405761 0.003906173693372 0.022153011851490 -0.999746960922105
-0.002988448712676 0.939815227499120 -0.174620025175584 0.084898916841506 0.970399059946205 -0.226092543828097
-0.002924935061206 -0.001436092031645 -0.813441440487131 -0.001931946249091 -0.001352763327030 -0.999997218803668
-0.002608502177614 -0.004714804261796 -0.795070353239808 -0.000000000000000 -0.000000000000000 -1.000000000000000
-0.002548166655802 -0.016172601607867 -0.796396101804048 -0.000972862602332 -0.000681205727795 -0.999999294748308
-0.002481789604712 -0.004713238855388 -0.806055127057795 -0.013019915445983 0.022551155062694 -0.999660906111226
-0.002327130121651 -0.006070233835305 -0.806623305013898 0.001960547321148 0.022409158422766 -0.999746960922105
-0.002235788129209 0.008379792660529 -0.809842980098480 -0.021463260156297 -0.010008482579855 -0.999719540041062
-0.002231046758535 0.000568177956104 -0.803971807885418 -0.008650058554333 0.049056919817820 -0.998758526924799
-0.002057243877421 -0.009060655008102 -0.805865734405761 0.003906173693372 0.022153011851490 -0.999746960922105
-0.002002641545505 0.008678857780754 -0.795259745891842 -0.019038567908544 0.071052902738035 -0.997290839196115
-0.001879717809062 -0.152436386099796 0.764956921566361 -0.036850249873376 -0.063826505052296 0.997280420111154
-0.001808353374752 -0.017229164470561 -0.796396101804048 -0.000972862602332 -0.000681205727795 -0.999999294748308
-0.001740953384802 -0.008428548597375 -0.802646059321178 -0.014459351575800 -0.017231984187042 -0.999746960922105
-0.001676700220139 0.001624118715254 -0.812683869878994 0.023729010214419 0.041099851304694 -0.998873233346943
-0.001460281421148 0.001516827090816 -0.811358121314754 0.019922013470784 0.042722895758582 -0.998888315857820
-0.001068540093702 -0.018285727333255 -0.796396101804048 -0.000972862602332 -0.000681205727795 -0.999999294748308
-0.001017674966344 0.000974442479669 -0.795070353239808 -0.004337141121306 0.024597149590380 -0.999688036058711
-0.000637046987218 -0.841850338292270 -0.302270672646673 0.000000000000000 -0.804741321088543 -0.593625644773427
-0.000328726812651 -0.019342290195948 -0.796396101804048 -0.000972862602332 -0.000681205727795 -0.999999294748308
-0.000119005681891 0.009183576489243 -0.795259745891842 -0.019038567908544 0.071052902738035 -0.997290839196115
-0.000013899854014 -0.005593481160353 -0.813441440487131 -0.001931946249091 -0.001352763327030 -0.999997218803668
0.000249144594257 -0.973288838804043 -0.006818135473233 0.000000000000000 -0.989159347555919 -0.146846127435317
0.000257956707800 -0.003131445584348 -0.806055127057795 -0.013019915445983 0.022551155062694 -0.999660906111226
0.000411086468399 -0.020398853058642 -0.796396101804048 -0.000972862602332 -0.000681205727795 -0.999999294748308
0.000447596453852 -0.012517604225484 -0.809085409490343 -0.022551155062694 -0.013019915445983 -0.999660906111226
0.000463355663390 -0.012076875569516 -0.803214237277281 -0.012488300135303 -0.021630370334514 -0.999688036058711
0.000835265612978 0.001828084739801 0.773100805603835 0.008548113038375 0.097705379118540 0.995178671724221
